ply
format ascii 1.0
element vertex 700
property float x
property float y
property float z
property uchar red
property uchar green
property uchar blue
end_header
-3.631008848197553 -4.090864101884346 117.44046130592578 200 200 200
-3.0335921208996752 -3.395763100000216 124.01690269777717 200 200 200
-3.1017011493942235 -3.716685686709843 123.58069539522452 200 200 200
-3.3203061664523186 -4.0312328514405 116.91098376141848 200 200 200
-3.3203061664523186 -4.0312328514405 116.91098376141848 200 200 200
-1.7634505243061394 3.626419126567077 123.26257263524029 200 200 200
-2.5345687520623934 -3.178140136399659 123.78599855745223 200 200 200
-3.2746994612064197 -4.805496959585017 115.625082895824 200 200 200
-2.749641223663751 -4.601253286824142 123.56492709619961 200 200 200
-1.0694437880568761 3.9744429747236367 123.02573729350259 200 200 200
-1.0687009443837434 3.962460867064377 123.03312487297622 200 200 200
-2.017886586932273 -3.402048684533065 123.76640428882459 200 200 200
-2.542422682024016 -4.076789494586782 116.78144220597393 200 200 200
0.2611737293446326 12.206150146649922 122.85293754788015 200 200 200
-0.8026892565245051 3.751982784786026 122.18059865374117 200 200 200
-0.735364288791633 3.8938223123388345 122.79002340783052 200 200 200
-0.9184835127837768 2.661278921562984 121.90799786531538 200 200 200
0.4086572307932914 11.090240487816823 121.36327606577582 200 200 200
-1.9462676648129285 -4.107697501926071 116.67434113662048 200 200 200
0.8166034006933213 11.988838475511779 122.14885675576905 200 200 200
-1.8549330442179042 -4.943586831737021 115.4032737940855 200 200 200
1.0114241795021635 11.616133126501055 121.71878041193669 200 200 200
-1.6155926554133626 -5.5224827272922745 118.53577497320545 200 200 200
0.1138192986401037 3.7879703538970477 122.4248062538686 200 200 200
0.2085552716511142 2.987585917166809 121.91077706881626 200 200 200
0.4742651857388419 4.186724954220592 123.10491658990432 200 200 200
1.2851899394498758 11.04677751866862 121.26396181311512 200 200 200
0.6817650376581258 3.817102269518333 122.32586075812331 200 200 200
1.8538986488856546 12.119230205276745 122.62555995762139 200 200 200
1.7996392999382604 11.288985592083353 121.44181426301586 200 200 200
2.2828327212583055 12.146623190725098 122.67037973867068 200 200 200
2.2756609332701188 12.129399392588898 122.68012891023554 200 200 200
0.04490464369047721 -4.296622896687747 117.20279927456949 200 200 200
2.5891902493265166 11.928362030135315 122.19668858415949 200 200 200
0.13269304281033142 -4.259578562753259 116.80240163930713 200 200 200
0.6092477955703098 -5.287621583032198 122.68459846786362 200 200 200
1.8496683933867497 4.330708451461409 122.86186963313955 200 200 200
2.6041797180239015 11.284807361663743 121.42763357306367 200 200 200
2.8311192062174073 11.825976600757668 121.91142246788985 200 200 200
0.6055096658276737 -4.361020484254839 117.10495719495889 200 200 200
2.8973053829921196 11.337936886203263 121.65088153453111 200 200 200
2.9592214417529776 11.439626555914218 121.58289898077962 200 200 200
0.641801600973651 -4.549484416135404 115.08439538041154 200 200 200
3.154028099709862 11.943693096522464 122.15525910006657 200 200 200
0.9401563942450764 -4.896754274866768 117.75671336614042 200 200 200
0.9723457729470788 -4.402544199541098 116.73155496296329 200 200 200
2.4545750814257143 3.5976337614758833 122.01248215932101 200 200 200
1.0367759310929894 -4.468047063915513 115.43990041987406 200 200 200
3.6117955801449755 11.777978641922132 122.89406899416937 200 200 200
2.608606376376805 3.1161109246276717 121.64917613613467 200 200 200
1.3531064390675185 -4.397316975201216 117.01001152693179 200 200 200
1.375578227400718 -4.378570033780896 116.99995286901797 200 200 200
3.688939762988791 11.589842610064581 121.40950913593385 200 200 200
2.681472714828808 2.2740780731157133 121.55096236999402 200 200 200
1.5988169822515903 -4.3915355398165685 116.59480435074971 200 200 200
1.7417584681011034 -4.925373249071421 117.59446650733965 200 200 200
2.477594952775843 -3.7459117094813235 123.1990672995813 200 200 200
2.9218054628801675 -4.072910796016295 122.49570981784187 200 200 200
2.9748008785099653 -3.767603249892845 122.86572722263827 200 200 200
2.4055013785996557 -4.459995254068167 116.02784113871316 200 200 200
5.0030631117940345 11.729281636064293 121.55586982406037 200 200 200
5.139213495325676 11.843476863026002 121.91923286586862 200 200 200
4.286453006229982 3.7672483620758945 121.83220694423092 200 200 200
4.284403586575869 3.7557425584722814 121.83968907209349 200 200 200
4.207231979188374 3.2853924862720363 121.30758165971172 200 200 200
5.280767276005509 11.429222687591855 121.21474794639508 200 200 200
5.1494929528537785 9.856500867742524 120.96741161773267 200 200 200
5.457468355020963 11.301945539357098 120.95753878971621 200 200 200
5.8202052957497985 11.624518523171107 121.45806109874326 200 200 200
3.6825034469063582 -5.298100485551079 115.49509549002785 200 200 200
5.240773501410163 3.6831794014148422 121.78228734717008 200 200 200
5.3431629589707095 3.470568898366481 121.42562485757276 200 200 200
6.2849101328415005 11.576906686750844 121.35468562639355 200 200 200
4.281929094896778 -4.634363707868999 115.36498806012841 200 200 200
4.281929094896778 -4.634363707868999 115.36498806012841 200 200 200
5.186129465388277 -3.821425523724377 122.72247231276319 200 200 200
4.509181826810392 -4.577075174923229 116.20070290581599 200 200 200
6.614512603407142 11.772163756914916 121.56000893049904 200 200 200
5.189908911668184 -4.1026850288471355 122.06716393419461 200 200 200
4.8233598063846035 -4.708850206274477 116.51039775501455 200 200 200
6.9581143793457185 11.35988530787755 121.03267040935069 200 200 200
6.42178551798853 2.8293841222910614 121.16557320621617 200 200 200
7.354712007052107 11.969786163154012 121.82635515904852 200 200 200
7.31494972218544 11.674423300802427 121.28953562454731 200 200 200
7.29870293709865 11.27403057159719 120.74830732962248 200 200 200
6.774028470004643 3.917323824928675 122.01517867927303 200 200 200
5.274662171032518 -5.015439916006998 114.4518926281631 200 200 200
5.53638899997164 -4.8397552360999665 115.25003734463304 200 200 200
6.275721336061809 -4.012888942987923 122.40101311776608 200 200 200
6.303895128522801 -4.13488776032505 121.97704062956315 200 200 200
7.535250751343028 11.058963956542986 120.51711398697904 200 200 200
7.532271213303534 11.056971269933298 120.52003726624778 200 200 200
5.828065032202991 -4.789217852452367 116.41449234457372 200 200 200
5.780216426912838 -4.7558904743830315 115.58091243870524 200 200 200
5.775784202133603 -4.7591943679906015 115.58024223147197 200 200 200
6.37027180928949 -5.154955760650329 121.17531536911754 200 200 200
5.788097681069059 -5.0143834233908215 114.44095109187923 200 200 200
7.226301699388408 3.4733531493974965 121.19358138735558 200 200 200
7.8694253326866 11.43303210352477 120.51098217253227 200 200 200
6.560849003237092 -5.514306126671666 119.43967983679394 200 200 200
6.814419230938259 -4.23919906580336 121.8795825350698 200 200 200
6.055123197256931 -5.300626707976938 114.07284318653376 200 200 200
8.46098849551723 12.51093104576495 121.9716569051996 200 200 200
7.588193547744366 3.086216258532901 120.89359447239019 200 200 200
7.20989409717304 -3.942158230950983 122.23646735111346 200 200 200
7.185158889414038 -4.31397659312967 121.63901639512179 200 200 200
8.813537182203282 12.69661069697039 121.62716805472805 200 200 200
8.133287768856489 3.6379594726600466 120.97219523516226 200 200 200
7.666881018259316 -4.046200835555119 121.85071853239761 200 200 200
6.901713565814058 -4.958425245915489 113.36442572209998 200 200 200
9.040423806486197 12.390985842327986 120.79990874950602 200 200 200
7.050002696122245 -4.126996216258154 113.78469842221782 200 200 200
9.082302558721375 10.227270436328308 119.53519464359454 200 200 200
8.104156202841837 -4.012918668787924 120.89057944150824 200 200 200
7.406699589357488 -4.179808936844987 114.02849532452966 200 200 200
8.348153253980811 -2.315696131309615 120.86597073101116 200 200 200
8.889443452098629 3.9215412196499693 119.99510123958892 200 200 200
7.4923794719659735 -4.454000058779241 113.0729859445945 200 200 200
7.619311499681317 -5.195183790606668 112.86776682423782 200 200 200
8.8762818960042 3.5029100554495782 119.67238161668655 200 200 200
8.495989146656733 -3.833742112795479 120.64336394218954 200 200 200
9.374271799646554 7.910745576949291 119.52200026227824 200 200 200
9.495043869703267 9.551700592291228 119.59077102401956 200 200 200
8.072383486019808 -3.830579125584324 114.51309130807547 200 200 200
8.507329650781225 -4.190436191090638 116.76041138955846 200 200 200
8.903513773956233 -4.342048792287279 120.13759193010732 200 200 200
9.320650780283135 1.9833164130076382 119.91113077102878 200 200 200
9.320650780283135 1.9833164130076382 119.91113077102878 200 200 200
9.945062246509295 9.501220726781982 120.1492899179926 200 200 200
9.845875973798083 9.026437269923163 119.66334357040753 200 200 200
8.15109065323508 -5.027961174239221 112.84854640618357 200 200 200
9.316617047649283 0.09330046374834482 119.95670968249144 200 200 200
8.818196639771152 -3.8493728802267384 117.51939394810675 200 200 200
10.2420865447531 10.02952968081082 120.24024128498303 200 200 200
10.323220270967006 10.205482121197614 121.99028642037617 200 200 200
10.581366966873146 10.117774429580688 122.53411243332063 200 200 200
9.684371163403597 -0.7226340888996263 120.14987395062397 200 200 200
10.392268825439931 8.82941688722743 119.65925215260411 200 200 200
8.86590303279883 -4.555233743402267 113.42745406787583 200 200 200
9.472747275637275 -3.9525290752067974 117.75882288626585 200 200 200
10.90469477948959 10.020791980227322 122.57088899551023 200 200 200
9.22400724827142 -4.683220110012005 115.16461168148601 200 200 200
10.923365739829142 9.929075643849787 121.62466819234992 200 200 200
9.73648707122377 -3.8218342259637166 118.65720586796186 200 200 200
10.516546643138259 6.982344788037664 119.64977818807547 200 200 200
10.060726557530874 -1.640779965132391 120.46468577639995 200 200 200
10.872911676587186 9.77243029661594 120.69248764765484 200 200 200
10.428178028289596 4.023433470991466 119.80504244095404 200 200 200
10.425729141797643 4.070855524009107 119.77627635252527 200 200 200
9.498451053822729 -4.382874361570163 116.35143845168959 200 200 200
9.325786636036847 -4.5643522900962825 114.34606390414716 200 200 200
9.965449494565727 -3.6930242432265428 119.57006538041566 200 200 200
10.346469451529833 -2.8206107918314856 120.4952702926717 200 200 200
11.163583573560478 9.586062820625783 119.57605845395595 200 200 200
9.574365470243928 -4.496222536632484 113.53602486435419 200 200 200
11.076068449797914 7.336434300256866 119.49124812450749 200 200 200
10.90876258160992 4.56212821510617 119.63116093319269 200 200 200
11.319234815150583 9.667048087064403 120.52819074974022 200 200 200
9.736449356648569 -4.348072355198052 112.63123212971621 200 200 200
11.455947561554748 9.615597628539547 120.1933471683538 200 200 200
10.260904530856902 -4.337057976537963 116.7886642247146 200 200 200
10.594510972738126 -3.804379703925294 119.13559322114521 200 200 200
11.676029819121984 9.709587841300122 120.48147618207615 200 200 200
10.01073686155133 -5.691836241910222 112.67704704752414 200 200 200
10.266808468144411 -4.447977002207002 114.01835047179624 200 200 200
10.32164858810863 -4.6223424051739626 114.62579877729905 200 200 200
10.431387042188387 -4.629443740874656 115.11190570901734 200 200 200
11.748639167857402 9.5030233051378 119.46060955269282 200 200 200
11.370897168318068 2.265452701653202 119.6400653486328 200 200 200
10.91348968048726 -3.891972292458606 118.80431930007401 200 200 200
12.224648912156416 10.073586257174114 122.31162603211172 200 200 200
12.044714881152014 9.796714556984266 119.56947534176115 200 200 200
11.710764228528545 0.12010467563396454 119.6687870046232 200 200 200
12.266911029184955 9.48671967000827 119.39065879949324 200 200 200
12.376790139312932 9.597414454791375 120.41063835286532 200 200 200
11.925028111627636 3.149605716169776 119.36488439130906 200 200 200
10.9455689326678 -4.560171350329242 114.73638584339936 200 200 200
12.789809948155686 10.180086020494572 123.01308844689831 200 200 200
12.332764742312948 7.550790389038238 119.23978390812569 200 200 200
12.577680550220379 9.577945166763708 119.98429787813258 200 200 200
12.574320277086636 9.552427055954388 119.99795288180447 200 200 200
10.888363283593092 -7.731416643711144 112.92616498768449 200 200 200
11.910750814857769 -3.643367393508244 119.6374126151223 200 200 200
12.995302162897387 9.632473341482097 122.67761163670184 200 200 200
12.95540609969604 9.73927731202533 121.49117261461909 200 200 200
12.339752878480724 4.4371128958999035 119.18962167160262 200 200 200
13.036129498342378 10.081488046951007 122.12991983993759 200 200 200
12.828115025988371 9.574540412848725 120.4835381696351 200 200 200
12.79624398632368 9.431322724963835 119.35823868879272 200 200 200
12.744441963372866 8.143750613762885 119.23919232424032 200 200 200
12.288762002383164 -3.805329383585552 120.3378308845105 200 200 200
12.221315876073886 -3.894732491543723 118.72036824214189 200 200 200
12.564107771200627 -1.0052524203121105 119.66398652077869 200 200 200
12.693320728694236 0.719974760010171 119.56748241139229 200 200 200
12.691876890581247 0.6172929161356148 119.62904159685881 200 200 200
11.759173213484056 -6.5296665485335215 113.51284147740897 200 200 200
11.837548431798979 -4.5308178846469565 113.9126943317354 200 200 200
12.098516621178048 -4.548537183582852 115.4507863314746 200 200 200
12.706501298136677 -3.6184371492779297 119.64234816318236 200 200 200
12.706501298136677 -3.6184371492779297 119.64234816318236 200 200 200
12.11978807409908 -4.4864857534382185 115.03271086585318 200 200 200
12.869083874430792 -1.1479270420520045 119.47936063505409 200 200 200
12.869083874430792 -1.1479270420520045 119.47936063505409 200 200 200
12.683275164522398 -4.010603834241111 118.44828933193321 200 200 200
13.764397603128579 6.699937218158233 121.55875791438483 200 200 200
12.152303792124865 -4.513622079014824 113.46519915345128 200 200 200
12.773658074142656 -4.142824881388901 118.04780506119708 200 200 200
12.914136725311089 -3.783625632562221 118.90543296071128 200 200 200
12.988767896806277 -3.75349855805793 119.25361716791177 200 200 200
13.336865005805668 3.8081882890768646 119.17655593309229 200 200 200
13.620877131708077 6.532295536111228 119.70437515943158 200 200 200
12.871639612912354 -4.33221649503513 117.5371524679034 200 200 200
12.78710610723418 -4.588894200613262 115.32393699733736 200 200 200
13.31560838677603 -2.713230980005248 119.71391370078126 200 200 200
12.897301899428609 -4.523719886465791 115.91526375536661 200 200 200
13.156634441927444 -4.330530381652376 117.28925311604782 200 200 200
14.106654184540917 7.450949684348582 120.59371693439638 200 200 200
13.09566466157491 -4.471637993916962 116.30065964874973 200 200 200
13.605237169083981 -3.645038309403039 119.52541288389122 200 200 200
13.215894701083426 -4.529432386849386 116.69383121197004 200 200 200
14.418258500564452 7.759202929731361 121.8110459712843 200 200 200
13.09316026668007 -4.4455176626792605 114.93306283011594 200 200 200
14.005119587374711 5.4610633969712445 119.01972371061278 200 200 200
12.949255179424366 -5.644441921549334 113.09764351896641 200 200 200
14.425708896471262 7.267684633045501 120.52740736513041 200 200 200
14.367095539254711 7.26397883119845 120.00848974704783 200 200 200
13.161763211459958 -4.405787061026477 113.74037656740694 200 200 200
13.304307669484443 -4.50171026557077 114.90708965026711 200 200 200
14.364610096453026 6.80816927469784 119.05803478635349 200 200 200
13.683284205434221 -4.518434304085161 115.90870430305836 200 200 200
13.313579127734943 -6.990021755667444 113.41126720674316 200 200 200
13.478885238723128 -4.504606632916922 114.08559415227083 200 200 200
14.503856606533393 3.4678592912776276 119.1230779948491 200 200 200
14.509071679957446 1.521730163991596 119.06171740812741 200 200 200
13.981695000323299 -4.517442822502758 116.62549887107855 200 200 200
14.564948369822915 5.951009861057898 119.1154598065011 200 200 200
14.76517034994437 7.253626530072095 119.34389734526316 200 200 200
13.782155100401084 -4.546170643379138 113.70046504994626 200 200 200
15.187488283986836 7.43526517982395 120.82637836628052 200 200 200
15.28932884524214 7.432237073512864 121.67701257969678 200 200 200
15.345355194439259 7.601577973083022 121.82418627831215 200 200 200
14.233324912293345 -4.493107466250595 116.1990542630026 200 200 200
15.150031193398203 7.1880013030459775 119.80324882612214 200 200 200
15.146350941055353 7.210218577229152 119.78447449352903 200 200 200
14.811045409725322 -3.5418915728241136 119.2144965490871 200 200 200
15.487835517930312 7.2827836231661705 122.5019315225498 200 200 200
14.433190236630887 -4.5443673082955955 115.61181522932564 200 200 200
14.587812733314086 -4.47652293119086 116.55285261519204 200 200 200
15.529598835340483 6.953463583113113 120.49570441962172 200 200 200
15.459692051532928 6.740770017513146 119.77645851211338 200 200 200
15.239408770844848 -2.397381798218005 119.2464635320567 200 200 200
15.747595655495875 7.336859188215525 121.40740627343683 200 200 200
15.499885620915245 6.669276559381722 119.17281457087228 200 200 200
14.990497481765466 -4.673218085896997 117.29158382377413 200 200 200
14.524608007873297 -7.244073464132086 113.67678693917632 200 200 200
15.24745743423885 -4.02412731451381 118.35657507549692 200 200 200
14.789275059812653 -4.526496141076087 115.08152240963733 200 200 200
15.53522755359429 0.6545134820641797 119.04002966244923 200 200 200
14.999185127832833 -4.554581345539926 116.24704776030345 200 200 200
15.665267924687157 3.4773818377339527 118.97367127574356 200 200 200
16.069538275768583 7.344388333325139 121.46808358403577 200 200 200
15.819891359722446 6.281208185780331 119.05979420779316 200 200 200
16.088307051183314 6.68908460950378 120.76600184488527 200 200 200
15.418470296340212 -4.494051241589179 116.97136493924322 200 200 200
15.495328899667399 -4.402436688380951 117.38448749540106 200 200 200
15.014103978522593 -4.4409349062468575 113.34242459728436 200 200 200
15.911756952278846 0.6997383353841529 118.84378192270938 200 200 200
16.144757373655022 5.7655711008056905 118.96707585152521 200 200 200
16.386645802196895 6.448196464971484 120.04619068636944 200 200 200
15.523027303758626 -4.472387611093505 115.13314864689838 200 200 200
16.298686544158247 5.351817707425396 118.72090973350862 200 200 200
16.259856894691406 4.515022981081832 118.55292396648555 200 200 200
16.259856894691406 4.515022981081832 118.55292396648555 200 200 200
15.945586761191532 -5.38830265902299 117.06580344023014 200 200 200
16.89794539405762 6.5002044775252354 122.27858795912861 200 200 200
15.38733679432928 -6.866220672949598 113.216021767286 200 200 200
16.040436740457288 -4.019901025389737 117.49683438346656 200 200 200
15.87291977153962 -4.476237644663683 115.70250640391099 200 200 200
16.078388220312082 -4.2747528234100605 116.81176982471688 200 200 200
16.46484728624775 3.3137987144930077 118.25684854227563 200 200 200
16.060894485142875 -4.403130277397111 114.68764548179182 200 200 200
16.788240097062644 3.959101988947314 118.45099338919749 200 200 200
17.22411358717056 5.33261332158182 121.15537579905443 200 200 200
17.401899076616296 5.32121582597276 122.1777303104383 200 200 200
17.393661383046123 5.2744772321492235 122.21098089577534 200 200 200
16.92017940819802 4.5864745439269 118.78318279639272 200 200 200
17.268257228476806 4.806638557141265 120.50381054668041 200 200 200
16.668411925079 -3.1249752427930884 117.57546192051724 200 200 200
16.237510130138308 -4.07973245713569 113.65899024276887 200 200 200
17.115461776980855 3.247549669022548 118.44435855405247 200 200 200
16.543547437388302 -4.261543525866211 114.99975778313065 200 200 200
16.79128786303836 -4.155584983960517 116.60881516864147 200 200 200
16.97857503262106 -4.014048846063993 117.21649365192289 200 200 200
17.992866887056802 4.933707007160143 123.20826307704142 200 200 200
17.109756261137445 -3.8051254898618683 117.78665702576083 200 200 200
17.761849022923045 3.8953175031767246 120.59395775401948 200 200 200
17.46801424203543 2.7631908942004397 118.3657383090408 200 200 200
18.022526967399223 3.836834909845055 121.70359652424563 200 200 200
17.447486737826214 -3.623583164592237 118.61987229599497 200 200 200
17.637071209775915 3.2148195941041795 118.65276173203037 200 200 200
18.479217968448417 3.709897182553355 124.40516061365419 200 200 200
17.6243935178618 1.9890774739713046 118.27703055077748 200 200 200
17.453039915323174 -3.8444613581152742 117.46565094427768 200 200 200
18.551761619326008 3.775145086214136 123.50987945435197 200 200 200
18.44993184489356 3.7518188829354564 122.81572194928859 200 200 200
18.116527208497242 3.40482428736519 120.40326157441193 200 200 200
18.201708260258645 3.190285176393099 120.00686655170793 200 200 200
18.866937036970516 3.838146246676415 124.37763938210341 200 200 200
18.95925866272372 3.7963237216107477 124.9158365059908 200 200 200
17.008876897889753 -5.7292433851855815 112.4001120398031 200 200 200
17.96635756826908 -3.5735475018879175 118.5865676354288 200 200 200
18.765284080046083 3.7774129295452434 122.47074044782921 200 200 200
17.99920094595705 -3.7426898514979348 117.66085968448607 200 200 200
17.39860995105224 -4.265366334847527 113.11224775262795 200 200 200
17.913756034891676 -3.96706501773459 116.38865229301089 200 200 200
17.801760754337852 -3.997987475162869 115.52207838000503 200 200 200
18.503857087761265 3.167846351761966 119.69396748226747 200 200 200
18.503857087761265 3.167846351761966 119.69396748226747 200 200 200
18.49240853933193 3.2092939615728624 119.2929261467938 200 200 200
18.356171539610273 2.7992925120290515 118.30693835768474 200 200 200
19.382551055542358 3.8541717679142455 125.52497998510114 200 200 200
18.45530574952007 -2.909998510733694 119.1273052333304 200 200 200
18.398302820235628 -3.446824995592688 118.66894765157042 200 200 200
19.275437399122524 3.510789749490569 123.92960001062617 200 200 200
19.2678508776132 3.4946775409259367 123.94140174004323 200 200 200
19.115774744332576 3.6660688058037696 121.42796952719894 200 200 200
18.00197516174948 -4.019483854133393 114.13163930916147 200 200 200
19.020458037189265 3.535654946709617 120.52205573873397 200 200 200
19.410866627380177 3.654547259121459 122.91141288163358 200 200 200
18.915491165456714 3.24266656280864 119.45843361260977 200 200 200
18.939955687633457 -2.5276358970404615 119.2784250972564 200 200 200
18.544480554540797 -3.953985519759155 116.25388312571384 200 200 200
18.598610166327674 -3.881287165823838 116.65719206392605 200 200 200
19.32476414609533 3.651891741343188 121.07914340569715 200 200 200
19.818043561863806 3.695022526601321 124.23402634286045 200 200 200
19.055617917726877 3.3565289446738733 118.75228470413573 200 200 200
19.329475670642555 3.547723751005013 120.68265409872762 200 200 200
19.819269894960716 3.631904657279391 123.03975259279706 200 200 200
18.666972885324608 -4.018179081024703 115.09468197705317 200 200 200
19.277141930805396 1.6915283019247416 118.5889805080718 200 200 200
19.176148895292133 -3.8540559693797967 117.64783966348674 200 200 200
19.219446995241803 -3.7614305682748435 118.00801009185747 200 200 200
19.49558347370551 3.1656827987562544 119.30021211286075 200 200 200
19.428401290949676 -3.0874508580175606 119.13015991139146 200 200 200
18.804927221600053 -4.124496807974982 114.47221027784778 200 200 200
20.170339313248245 3.69805742588396 123.12452064785806 200 200 200
19.70994392805316 3.189478270454158 119.58528188309681 200 200 200
19.77202925160035 3.015755924307201 119.03791638018025 200 200 200
19.04288486717614 -5.292158552212357 113.86367235883327 200 200 200
19.985672511671194 3.5380645948707397 120.35738580493067 200 200 200
20.004875962118145 3.5245384103356017 120.35908975720619 200 200 200
20.160398567955347 3.473281130273123 121.79080046638448 200 200 200
19.596253802173496 -3.8774184952612454 117.41380533126767 200 200 200
19.97246763083102 3.13598522296848 119.39977699167297 200 200 200
20.39271077491778 3.4914251115958885 122.18963832121307 200 200 200
20.315975595909652 3.677407237018727 120.71296376017386 200 200 200
20.248442987697583 0.45594839948966337 118.99818827586624 200 200 200
20.248442987697583 0.45594839948966337 118.99818827586624 200 200 200
20.646851847439237 3.653924808992646 121.27986248087493 200 200 200
19.950230499284693 -3.9269689818625593 115.39558672101883 200 200 200
20.390455208784662 -3.845320142229972 118.14553991516425 200 200 200
20.49325235170164 -3.7627737863275845 118.68364731611157 200 200 200
20.588658854732568 3.24107589274326 119.23177053722776 200 200 200
20.2521941226374 -3.9927731743396677 116.51183151874235 200 200 200
20.805854636740854 3.5168602671199403 120.11847853721393 200 200 200
20.3844988336458 -4.14318236237168 115.79692276157468 200 200 200
20.91418688251575 2.746087920868865 118.81056253889403 200 200 200
20.949561235282694 -3.757194986482761 117.64184303337736 200 200 200
21.272022490013207 3.009841388523379 119.12084802849175 200 200 200
21.402335384995204 -3.704914409218085 119.1204651669742 200 200 200
20.977627388211236 -4.30926032439999 115.30227663793971 200 200 200
20.977627388211236 -4.30926032439999 115.30227663793971 200 200 200
20.949279038970538 -4.157460928545898 115.2233671714534 200 200 200
21.313851385010402 -4.029913284085092 115.71652663814831 200 200 200
21.43364557117495 -3.8486694044098444 116.06637706048848 200 200 200
21.855033739715186 -3.8396627589940624 118.17201681348813 200 200 200
21.48073090032512 -5.1079240848832255 115.43929247693671 200 200 200
22.13194975918331 -3.762651268026596 118.44757830731542 200 200 200
21.993662416646075 -3.2512180297201603 117.53557803047688 200 200 200
21.924530060592843 -3.8250547152583265 116.4242701487706 200 200 200
22.361679733978885 -4.100858549669643 119.20124361984551 200 200 200
22.165052808315377 -9.420657254516996 116.34690683653999 200 200 200
21.987669754714087 -4.696855770956984 115.73683780450253 200 200 200
22.155058395596445 -3.6042759651350345 115.31827465042055 200 200 200
22.590665331748596 -8.66316702127638 116.25307384728706 200 200 200
-12.957905923050001 11.95078076215593 121.38839352670186 200 200 200
-11.919881132639382 12.850138734417362 122.53870807224067 200 200 200
-11.518154715599445 13.440219249317597 126.80473142463399 200 200 200
-11.566786826902709 12.80665738638414 124.73710814422824 200 200 200
-11.330940873774098 13.385655268781154 126.01181601950135 200 200 200
-11.128338084070714 12.833476415953427 122.02687453161613 200 200 200
-10.968382124960844 13.09456622345956 124.39934392461241 200 200 200
-11.979429606370385 7.492280564453103 119.75554258613448 200 200 200
-10.004397183319638 13.192285722053724 124.7234150103917 200 200 200
-10.003916979635568 13.179433612167688 124.72746107041154 200 200 200
-10.004818975229725 13.149129410853206 124.73573580608347 200 200 200
-10.971741049944033 7.231925327264157 117.88357854972449 200 200 200
-10.714478337019212 7.739244517752829 120.34362671243834 200 200 200
-10.33113472220095 9.211138182198344 121.44772884852468 200 200 200
-9.51006775132161 12.870556766838511 122.9218621449763 200 200 200
-9.515690015564296 12.734063110939962 121.23145353909207 200 200 200
-10.427952319929478 7.68806980660311 118.96890332911582 200 200 200
-8.87122540327561 13.065950690991635 123.6948030624209 200 200 200
-8.282567665842882 13.173698654207291 124.78141959882842 200 200 200
-8.998879470152895 8.07573141138694 120.45528459640978 200 200 200
-10.667510068869452 -0.7990190552267282 117.19573711068136 200 200 200
-7.45598748158792 12.841035122890043 123.26997288585663 200 200 200
-9.810188146026725 -0.6099758971691982 118.11951050068072 200 200 200
-9.810188146026725 -0.6099758971691982 118.11951050068072 200 200 200
-9.55260014116 -3.3832787421056936 115.85196713212007 200 200 200
-6.196216920121786 12.361623123413715 123.57760773873407 200 200 200
-7.75080998225452 2.3392513827497154 121.96102746691307 200 200 200
-7.065073732795879 1.2706293995626723 123.04298994955369 200 200 200
-2.5948746425126332 11.85265305079289 122.24958833319583 200 200 200
-1.5691631864032698 12.31389499290328 123.05532731875888 200 200 200
-2.675074234975487 -4.945601441403731 115.69054217450858 200 200 200
-1.3398410895043937 -4.498316384163796 115.50233056107277 200 200 200
0.475913816040983 -4.356831148047833 115.51940888682785 200 200 200
4.109147588219729 11.907033323784423 122.01586562015177 200 200 200
2.4744550263003338 -3.7504615177395793 123.2044500765686 200 200 200
3.246359563166837 3.7223773976686787 121.9950710530356 200 200 200
3.246359563166837 3.7223773976686787 121.9950710530356 200 200 200
2.1332435590648053 -4.493665948200245 115.67123406377898 200 200 200
4.992140153806655 -5.017902565585407 114.48941183445676 200 200 200
7.165595796159516 3.1453301087548713 120.9618278922344 200 200 200
7.023804182010018 -4.697086839720931 121.45932916579471 200 200 200
7.178543070140924 -4.854443775726822 121.29488396741183 200 200 200
9.248872697142732 11.940624969515168 123.02900001246151 200 200 200
7.01317273998151 -4.6685700999228406 115.59848573545823 200 200 200
8.4596535680616 1.6349030330099326 120.02021359712339 200 200 200
8.812329019460051 -3.8584671847994176 117.52935381942729 200 200 200
10.473269652246401 -3.790734751701252 119.44839188346911 200 200 200
11.173107545931572 -4.395516854819501 113.37654947646239 200 200 200
11.624323657866196 -4.5180191233109195 115.74400446607522 200 200 200
12.571444304850603 -4.478517903537635 116.92374495320429 200 200 200
13.616501143597494 6.556344970979685 119.69297830326566 200 200 200
13.694976635007361 -4.124037934539338 118.11720210942394 200 200 200
13.970723884827992 -4.530976097987127 116.63000418136816 200 200 200
14.097931779670313 -4.608348807931923 115.42015658879102 200 200 200
15.15374321530781 6.834846627336366 118.83327659394853 200 200 200
15.742129640997515 7.2244087645460375 120.96691788727128 200 200 200
16.277922800201768 6.457169231848313 119.35185788129711 200 200 200
16.561275926787435 6.811250178673916 120.89823221272752 200 200 200
16.256912823502955 -2.760101816409093 119.19246451845329 200 200 200
16.15829781661343 -4.192646281531394 117.16995833255449 200 200 200
16.16139331232526 -4.192746695750701 117.17035566980024 200 200 200
16.415117987273685 -4.299916153179023 115.9366716533079 200 200 200
17.686668245743967 -3.9110779404351175 117.1303514718373 200 200 200
18.672480630733336 3.765807054915477 120.87406370000342 200 200 200
18.674559449534982 3.662048169508322 120.9375174719171 200 200 200
18.981820033952314 5.902083630052206 123.08456001828327 200 200 200
19.354384000898023 3.487196920160966 120.71242294997177 200 200 200
19.058068360682153 -5.642562382695236 113.0453693185277 200 200 200
21.215064468763643 -3.4697889932244457 119.42426240995016 200 200 200
20.989395229353637 -4.080628061287111 116.58481496949437 200 200 200
21.762123299479548 -3.7871888364891135 118.62212010119406 200 200 200
22.50164650791852 -7.489458130689296 116.2386864015965 200 200 200
-12.010997576300566 13.240862960954049 125.1903419812706 200 200 200
-12.51114510538256 9.488783289427762 121.6986221189305 200 200 200
-11.519351586219573 12.8621359830471 122.43418978881196 200 200 200
-11.69833246342498 11.174917078219217 121.29092789646269 200 200 200
-12.962634022992884 6.171067177370436 118.5338551205653 200 200 200
-12.576886422025385 7.517910354752189 119.40393430470402 200 200 200
-11.079847537472517 12.967604117714775 123.06595842964387 200 200 200
-10.697252277929689 13.197229048943573 125.10257087347804 200 200 200
-12.912926682673987 5.075911834102026 118.11754219452246 200 200 200
-11.315214398781075 10.966162441982979 121.15492920808575 200 200 200
-11.00241125949257 12.446962445276922 120.95670063008708 200 200 200
-12.12066244394386 7.661528514619166 120.31710523971346 200 200 200
-10.142217678349391 13.999238981268604 126.03624853533606 200 200 200
-10.142217678349391 13.999238981268604 126.03624853533606 200 200 200
-10.38874969562195 13.177928448135575 124.95830777864774 200 200 200
-10.712951191056804 12.404994343681354 121.27875338551353 200 200 200
-11.610676430190184 7.772725496049369 121.21480449651456 200 200 200
-11.610676430190184 7.772725496049369 121.21480449651456 200 200 200
-10.191525926709346 13.404729946642792 123.63224662092605 200 200 200
-10.163931606047433 13.097876404408407 124.27143946720976 200 200 200
-12.196067431640417 4.141343652194195 118.22090922478567 200 200 200
-13.42672437199203 -2.543118801144914 116.7172026363991 200 200 200
-9.258745078690314 13.37921918343266 126.93441260678358 200 200 200
-9.16551517148153 13.242502759106713 124.60403075672605 200 200 200
-10.734115322731858 7.50474654704132 118.10765281055487 200 200 200
-9.241955295795899 12.29861158260658 120.72782333508304 200 200 200
-8.937707759909717 12.826426819932108 122.83713184106176 200 200 200
-8.771742110460405 13.111218917214138 124.69844745725528 200 200 200
-8.773004756786682 13.112393024583078 124.69843533649258 200 200 200
-8.196365762252821 13.299513791845841 126.58293891139468 200 200 200
-9.760387105429947 7.666317731768266 119.67992802043695 200 200 200
-11.757095605391333 -1.2936572464293445 117.49923911196255 200 200 200
-11.641114855972393 -0.7927160681072449 116.4829485809676 200 200 200
-11.742897426560171 -1.196584836426513 116.65290184606363 200 200 200
-9.496769213593234 7.6547870654296535 119.94565967185046 200 200 200
-7.998105918902109 12.89782526693358 126.29654691982651 200 200 200
-9.271152340407623 7.627119950462387 119.7285871573146 200 200 200
-12.612902012056699 -8.665797945125211 116.95842671154713 200 200 200
-11.328638650367692 -3.218936625747362 115.72435101174497 200 200 200
-10.675879711887458 -0.7806888808175233 117.18792602428778 200 200 200
-11.187887789248455 -4.595751341895747 115.90974386930083 200 200 200
-7.033405631218362 12.721079463758084 123.71674362673043 200 200 200
-9.237716411449293 3.9117846406878365 117.73073398325062 200 200 200
-8.077038766034741 7.5773121058573025 120.86751827128508 200 200 200
-6.91815617096044 12.36928035795191 124.31239685351225 200 200 200
-8.655365321991798 5.350258572781021 117.73944334489785 200 200 200
-10.02149408979722 -0.7279814348503235 116.47198072955605 200 200 200
-7.888375151420236 8.01852121200276 121.02158096547996 200 200 200
-7.157197753771012 11.03568885293782 122.2607373413076 200 200 200
-7.821804747968893 7.627871810010236 119.43708149055736 200 200 200
-9.866990831411258 -2.5970204467563995 115.64138825123985 200 200 200
-8.358815270361864 3.9574475469419514 118.409791798771 200 200 200
-7.328590387042468 7.501824803070498 121.79679506672744 200 200 200
-9.186841024720641 -0.6291166067332619 118.2309847469831 200 200 200
-7.674104276950836 5.852340740738469 119.98920022108312 200 200 200
-5.937394597277065 12.387698393224667 123.89563842636434 200 200 200
-7.20765403202895 6.401377287916714 122.28598851946101 200 200 200
-7.5814406983169755 4.225501725001778 122.04359899383512 200 200 200
-8.212277157312878 0.08803221033766663 120.8603462347806 200 200 200
-8.532715463494615 -2.030618900516321 116.84836652192647 200 200 200
-7.729995935784671 0.583617180529507 120.71728320872708 200 200 200
-7.729995935784671 0.583617180529507 120.71728320872708 200 200 200
-8.472526130223015 -2.4379861721997087 117.91681060796746 200 200 200
-5.562674848170249 11.159022692751682 121.96812600257515 200 200 200
-7.194406683156885 1.3849482539695177 124.33271697237026 200 200 200
-8.67430972006229 -5.874941214408346 116.58410554367454 200 200 200
-7.211837397872879 -0.6655502972349304 123.47162923241855 200 200 200
-7.985875992447063 -3.895621173669213 118.40788762362784 200 200 200
-7.313005320799436 -3.1655797570497315 123.12843389100293 200 200 200
-7.081137566177279 -4.864000889623669 124.07450567280786 200 200 200
-5.71287508653445 3.301538151058612 122.54393069642919 200 200 200
-6.691605128830806 -3.309890421115619 122.64742673925942 200 200 200
-5.333699524290829 3.3342327092258044 122.85376255481088 200 200 200
-3.2728822054150033 10.325830494617806 122.84681175288257 200 200 200
-2.9637417795958982 11.618391825878188 121.8963709875334 200 200 200
-4.007134023299969 4.199920649703148 123.52335612552454 200 200 200
-4.854377689759875 -3.9604860177322387 123.73634006247725 200 200 200
-1.9451407293484606 11.92289629347176 122.83255313189096 200 200 200
-1.9220432047690572 12.015883751081809 122.77867017063714 200 200 200
-1.3957056771296028 12.149052365319045 123.48821411079511 200 200 200
-2.5290817135935653 3.5677587810924614 122.63720796496975 200 200 200
-4.30691348424188 -4.5158580901439445 116.06136588603286 200 200 200
-2.2357176261931317 4.29061044312763 123.17997923256787 200 200 200
-0.9392903849433704 12.070259419182703 122.36511923296291 200 200 200
-0.9389400806485952 11.58414559325262 121.65266005369557 200 200 200
-1.771348706384758 3.5640196204219277 123.29133566232616 200 200 200
-3.23059035282612 -4.800408507553017 118.48904592902228 200 200 200
-1.3810514723312008 3.9091532125205664 122.5708253335168 200 200 200
0.2184370775820798 11.83804890179817 122.78557353289364 200 200 200
-2.2433691276589207 -4.460562494990788 123.34020385809211 200 200 200
-2.5416059469295202 -4.768921945685852 115.52957418496888 200 200 200
-1.9206176417111704 -4.410341273394017 115.58792687971454 200 200 200
-1.7458374111042574 -4.045239369282988 116.22322172754336 200 200 200
0.22645694087838766 3.535970675656139 122.12873705657957 200 200 200
-1.198587783795167 -4.680701256897843 118.1438815075557 200 200 200
1.8140968637836197 11.882382228726977 122.05560096272703 200 200 200
-0.783506000310186 -4.607711416110072 117.7594730533265 200 200 200
1.7736873742298305 10.939367125516497 121.21426596604888 200 200 200
1.7736873742298305 10.939367125516497 121.21426596604888 200 200 200
-0.9274931024339144 -4.851653170131074 115.26403416645678 200 200 200
-0.4100530428647117 -4.251149555705395 116.03120235290605 200 200 200
1.3504227220200178 3.8232316348602047 122.24565629795092 200 200 200
0.5069505903966137 -3.1851231132618714 123.25925601533096 200 200 200
1.3109211747789753 3.5249072470668694 121.88161932729724 200 200 200
1.1658697437347305 1.0917037829583172 122.6039366009108 200 200 200
2.389124411670353 10.541327479337644 121.368583618832 200 200 200
-0.14703458634820227 -4.910598651685227 115.35572715239894 200 200 200
2.7094289486782683 12.085407666897945 122.51342586725258 200 200 200
1.8523312378844692 4.417909725221162 122.8225290290996 200 200 200
2.939239805124035 11.936094920771266 122.96566626543577 200 200 200
1.738531465234636 3.6668920596910244 121.86839562372235 200 200 200
0.18878955302543937 -4.2829869325122205 115.93011994766997 200 200 200
2.4664409976877018 4.1625389882530675 122.71511456944204 200 200 200
3.1984700037412805 7.206848403199917 121.26157232919084 200 200 200
3.7404646743644525 11.954408745298746 122.06213581005342 200 200 200
1.9701935109990032 -3.351237805818401 123.07969256684387 200 200 200
1.9701935109990032 -3.351237805818401 123.07969256684387 200 200 200
3.9595811637166527 12.069252957367366 122.2564098844747 200 200 200
1.11170277012143 -5.156242898664874 114.87772375320976 200 200 200
3.1446007806230334 4.570947219384403 122.63175494579585 200 200 200
1.275743002866889 -4.675067729981418 115.03868479670827 200 200 200
3.506971750692158 3.758827708234899 122.55171181981802 200 200 200
1.897424115040626 -4.66265798021974 114.92847865825247 200 200 200
4.751070487032182 11.84129145019485 122.69018698672467 200 200 200
2.7308018317168443 -4.754369176382452 122.39917865308246 200 200 200
5.281623740249946 11.430222167379025 121.2142585358886 200 200 200
5.510888824297284 12.012702762710703 122.05102420981814 200 200 200
2.9128229113155446 -5.17803039803024 114.4804351476142 200 200 200
4.726229190516758 3.840552771247439 122.35149445607004 200 200 200
5.797911278803816 11.43694924039985 121.0666192467975 200 200 200
5.09131443112683 3.0976834637472375 121.19404075869993 200 200 200
3.634975352007359 -5.366126990804489 114.42421967559963 200 200 200
6.381095398844789 12.03147071377762 121.83654163324665 200 200 200
6.154675923961611 9.870766578886236 120.8786171893138 200 200 200
5.861745159549187 4.2426963706052705 122.34620681571043 200 200 200
5.915600815538803 3.7169394127206683 121.6173086070735 200 200 200
5.061905908753581 -4.648005051825868 121.82225413326107 200 200 200
4.577849500671873 -4.939057360289066 116.96174567842326 200 200 200
4.785174018998105 -5.529407672129726 117.53180923397352 200 200 200
7.190843781640535 11.753776250907356 122.29939012652125 200 200 200
5.1580812776140466 -4.6501762483308555 116.13313601241437 200 200 200
7.131740194905141 10.154447566145523 120.58966076629814 200 200 200
5.236746462733118 -5.089068701574971 116.90802909563314 200 200 200
5.606468264146241 -4.8474126980085295 114.81415840201683 200 200 200
5.609593706040832 -4.854546925283469 114.8154231580063 200 200 200
8.02929388286996 12.34054176519225 121.93465857204075 200 200 200
5.93670216365992 -4.710299482968649 115.11995581025224 200 200 200
7.785411124283982 3.807598613752661 121.69508826910887 200 200 200
8.442999204336294 11.754065713342518 120.6823303556335 200 200 200
6.197853739148624 -5.457401021812106 113.98810959459773 200 200 200
8.236614982078711 8.71476536092631 120.72559958018829 200 200 200
8.539969165948074 12.103013611451047 120.03706855942305 200 200 200
8.75609452195103 11.924228195878884 119.65265590406027 200 200 200
8.192334715366886 2.1491763341708343 120.28954891253804 200 200 200
8.747654856987216 5.927201211317055 120.40000622062746 200 200 200
9.128636423469311 9.43654463337993 119.92707661810057 200 200 200
9.35642914881655 12.40641218414067 119.90693708725222 200 200 200
9.55997637211135 12.911346612115182 120.22921290418212 200 200 200
9.045957637664333 6.431908159026944 119.58848392801966 200 200 200
7.9855063935749495 -3.8277676776019347 116.9408763546587 200 200 200
9.100047721135935 4.498528389257977 120.64732113618606 200 200 200
8.724636801863062 -1.2015791868124301 120.21783328827193 200 200 200
9.944558354944812 11.883073895121408 121.37485104480953 200 200 200
8.174290248952444 -4.061773351817455 115.75638854005476 200 200 200
10.081419030129348 10.230260489322278 121.4341035632536 200 200 200
10.095618205897873 10.093263011889908 121.49215142747293 200 200 200
10.156588571989241 9.609083904859334 119.71594607931263 200 200 200
8.924773508454804 -4.3498867019900604 116.22936846737191 200 200 200
8.426010565637643 -5.680272414349009 112.55811725765074 200 200 200
9.253164838602144 -4.3509844933750035 116.39294245010076 200 200 200
10.988044709080997 10.167685250693452 121.89508524189438 200 200 200
10.354946713434591 2.099309336705428 119.9566982038967 200 200 200
9.928430434946101 -4.372876898199349 118.2735259768389 200 200 200
10.278168418175369 -3.262966721890769 120.70978559115028 200 200 200
11.603467884249397 10.083011529522375 122.51249575137554 200 200 200
11.455516911022583 9.646766770193695 120.1819201056433 200 200 200
10.387895396473228 -4.168300176578165 117.6658084799059 200 200 200
10.272942608829117 -4.3981391720371175 116.39312692453368 200 200 200
11.43171739485125 8.058522201553085 119.5482886533846 200 200 200
10.130416221671805 -4.566970177800049 113.83455607740142 200 200 200
10.152154797839698 -4.488486359996673 113.58792469004219 200 200 200
11.247579849225993 0.8042437030677325 119.77181305682545 200 200 200
11.762618762247095 7.530083558563617 119.54734364564816 200 200 200
11.923669490698117 6.739384737903098 119.4267414427772 200 200 200
10.523917439861156 -4.366384193504438 112.56558124665843 200 200 200
11.50149784299637 -3.895226575326018 119.00659475240734 200 200 200
12.824635756941591 9.597239150879982 120.47952846262936 200 200 200
11.181409628171041 -4.2877707070424425 113.34108239850833 200 200 200
12.540981227556863 4.968243427419613 119.4067522800847 200 200 200
12.192459278591661 -3.7431831015119594 119.33595957720956 200 200 200
13.144870019098224 7.456741287676433 121.18066327289043 200 200 200
12.678771729107202 -3.9343888608623385 118.42311031776642 200 200 200
13.177212476456535 1.4215864477650089 119.398538216979 200 200 200
14.113368422365877 7.578519602393174 120.54054926838013 200 200 200
12.8677388956608 -4.560688931116548 114.1202741939857 200 200 200
13.281024510787086 -4.453334044662036 113.01425390230544 200 200 200
13.675197663320935 -4.405984170536289 115.45794802218417 200 200 200
15.109240722755322 7.500904646637352 121.20881271477305 200 200 200
14.569650690148771 -0.11902588243509976 119.19938748462626 200 200 200
14.31801064807352 -4.457457726790048 115.12318379899396 200 200 200
13.930347289447234 -8.09048653631016 113.6660071628476 200 200 200
13.956630710420335 -8.125523676667502 113.6749594816636 200 200 200
15.485709918644007 6.72707773689832 119.79106640216628 200 200 200
15.75454070181651 7.210514459673988 121.4338933439203 200 200 200
14.612086412037845 -3.8468385920162858 113.974979408809 200 200 200
16.51308927856111 6.85821051136414 121.7640650584445 200 200 200
16.477154650736406 7.0179000798345 121.68337219065623 200 200 200
16.48375211299421 7.03776714723966 121.67968956017329 200 200 200
15.135617377644484 -5.804749619448416 113.43087840360805 200 200 200
16.294199977378526 5.3898798182914565 118.7026831792749 200 200 200
16.809711233827823 6.749330339164467 121.48944425075045 200 200 200
16.125270172823306 -3.1672051342182685 118.36768084372179 200 200 200
16.578546477447084 5.16516877168358 119.48688789540084 200 200 200
16.45661428227207 2.8634330723128 118.47233085581612 200 200 200
16.78191243471531 4.90676386278418 120.19250154276443 200 200 200
16.92499184706021 5.426006952767296 120.67778132842994 200 200 200
16.34130426608527 -4.0011649407423 117.6820692733512 200 200 200
16.740082310362208 3.4305985552244045 118.49098179923823 200 200 200
17.46147320214302 3.0456537428868886 122.88276615174412 200 200 200
17.068683280538487 4.657350629519451 119.38887929799857 200 200 200
17.634988169903036 4.965914226913207 121.55547940604566 200 200 200
17.226756553737072 3.918348548665458 118.50154538094226 200 200 200
17.876056618323034 5.155829638300649 122.52862046348491 200 200 200
17.876056618323034 5.155829638300649 122.52862046348491 200 200 200
16.877549278066926 -4.218979542612347 115.32208661819091 200 200 200
17.662154543215443 3.38643835018361 119.86827137047774 200 200 200
18.20859901197872 3.215477251091428 120.00908671343726 200 200 200
18.550310164633622 3.7129515002692783 122.2092552288895 200 200 200
17.800578360670304 -3.9503398213897123 115.50506491461314 200 200 200
19.0807053654986 3.6879815275315004 122.68139616592791 200 200 200
19.60086380446241 3.5281915049970327 125.08189037381081 200 200 200
18.74254734867674 0.10919151636024357 118.62926262556154 200 200 200
19.419232660635885 3.659048963703977 122.91287803234827 200 200 200
19.07823427058076 2.608023949790822 118.62507202724682 200 200 200
19.162636037479615 -3.9800720693857725 116.8251127713015 200 200 200
19.162636037479615 -3.9800720693857725 116.8251127713015 200 200 200
19.707727981505194 3.223761550014298 119.57374140258447 200 200 200
19.428209116379847 -3.8544507627153806 117.7413677900811 200 200 200
20.12739828140501 3.6020259346452 121.7331497395877 200 200 200
19.637101362289986 -3.5029888701870258 118.51311535134892 200 200 200
19.561571944962548 -4.014858447505017 115.96873664296392 200 200 200
19.494790295976255 -6.377561288766134 112.88467643428173 200 200 200
20.779028074592418 -0.07345310010878886 119.44132479124607 200 200 200
