ply
format ascii 1.0
element vertex 683
property float x
property float y
property float z
property uchar red
property uchar green
property uchar blue
end_header
-0.2039667864655964 -2.307339261860932 4.805428217376707 200 200 200
-0.3343802550967831 0.4311764179006499 6.441605524830945 200 200 200
-0.21312782376232237 -1.963111424096368 4.880792696608271 200 200 200
-0.21312782376232237 -1.963111424096368 4.880792696608271 200 200 200
-0.33383630735065944 0.6454937880504222 6.39842711180099 200 200 200
-0.3222451802679309 1.037767732921806 6.2959371123450545 200 200 200
-0.317235281873013 0.18839297448250092 6.21497391759998 200 200 200
-0.31321227826705345 0.23675087494185532 6.18841051387044 200 200 200
-0.2031949377739031 -2.0213736198478 4.85856597691881 200 200 200
-0.24183994232980696 -1.3250273869311877 5.360709027438491 200 200 200
-0.2371277652041056 -1.4716783613637527 5.3307447489340465 200 200 200
-0.3007817713527309 0.19362232606309462 6.173480351283426 200 200 200
-0.20215840128250384 -1.9343224173640894 4.888215593751753 200 200 200
-0.1994776868068441 -1.8970390860868303 4.914919777366687 200 200 200
-0.203844133225204 -1.7837677688524052 5.006776209582768 200 200 200
-0.18827456224487052 -2.3287885469103435 4.80355428810233 200 200 200
-0.18972542351037708 -2.0642011171281207 4.844119102381649 200 200 200
-0.2997525212091148 0.94027188826876 6.335102419060982 200 200 200
-0.21396894523965962 -1.6408106116958387 5.20490274092999 200 200 200
-0.22194945858155457 -1.1205815258080267 5.319203788382367 200 200 200
-0.29859486672701036 0.8376143153614788 6.412510366342763 200 200 200
-0.18704936153240315 -1.8457957564452554 4.970978540208795 200 200 200
-0.18704936153240315 -1.8457957564452554 4.970978540208795 200 200 200
-0.1794976880402862 -1.9886740393468363 4.8804711623298545 200 200 200
-0.17487841151995798 -2.1595297431913054 4.824811785569723 200 200 200
-0.18493366161814317 -1.8257039526130143 4.990120966963649 200 200 200
-0.28828805750043873 0.8789374639994151 6.429221626481769 200 200 200
-0.18762951062532168 -1.8060788223448694 5.041721535618001 200 200 200
-0.20008761745021275 -1.6405703572622536 5.224729882384952 200 200 200
-0.20381826028150007 -1.3092219284824804 5.310881601943261 200 200 200
-0.17237148809738148 -1.9498636085778285 4.902363388156656 200 200 200
-0.17152195542792942 -1.9475492546991293 4.899375291706971 200 200 200
-0.18062169132832917 -1.7845714896324394 5.019506196799235 200 200 200
-0.2776470446716738 0.05090577366608493 6.396675039271342 200 200 200
-0.19898499359262578 -1.1962181597127695 5.2865772019552 200 200 200
-0.16849737334052053 -1.91099486857861 4.922972150099374 200 200 200
-0.1708905033535747 -1.912789592791674 4.924545320005563 200 200 200
-0.1908803250719668 -1.628272874014842 5.261898357322837 200 200 200
-0.15958935304534028 -2.1521330022701997 4.82379411248378 200 200 200
-0.26171329236626184 0.24522847305359438 6.359195384362637 200 200 200
-0.18753846227555665 -1.0871636574838264 5.275843649273234 200 200 200
-0.25943862059786454 1.0047582244439355 6.367947397993268 200 200 200
-0.1576654427715442 -2.547190774704164 4.882104986702983 200 200 200
-0.26000301467700676 0.9308999447774511 6.403117800541291 200 200 200
-0.1530040896850926 -2.2942881344643333 4.840891218297868 200 200 200
-0.1770385216353761 -1.6730965646623202 5.189700012110373 200 200 200
-0.14956275806204136 -2.3508648741124243 4.826026811970901 200 200 200
-0.14773355228979843 -2.139569896766891 4.83301162547433 200 200 200
-0.2569795788728714 1.2272607658387882 6.484588537015648 200 200 200
-0.17222266805011122 -1.2684373379116234 5.253064681810791 200 200 200
-0.17179788685733474 -1.2683936940538685 5.250784356463403 200 200 200
-0.14011980334043694 -2.1885182883452745 4.824931459123596 200 200 200
-0.16389166300796182 -1.233323546632189 5.210304557659979 200 200 200
-0.16389166300796182 -1.233323546632189 5.210304557659979 200 200 200
-0.15219833975117747 -1.8020396013413031 5.018766369928636 200 200 200
-0.24583608369994284 1.1747771642657656 6.561325098033541 200 200 200
-0.23568585824749688 0.9421536867304279 6.420102127942191 200 200 200
-0.16214178913707583 -1.9740276319036292 5.278213702633874 200 200 200
-0.15710136054632237 -1.1340494800198944 5.200494902827533 200 200 200
-0.12588165063003637 -2.2866033592310346 4.836987354712347 200 200 200
-0.22633780272241283 0.7683058640251222 6.4942080907977955 200 200 200
-0.13133005203678658 -1.9314972695890222 4.950105379773753 200 200 200
-0.14932020866590068 -1.9766655467326 5.246896845252573 200 200 200
-0.14932020866590068 -1.9766655467326 5.246896845252573 200 200 200
-0.12486256863432976 -2.5698448245410996 4.893190038069518 200 200 200
-0.12294435226978774 -1.9832241857126014 4.923974658976411 200 200 200
-0.13366414588057848 -1.2011310465066147 5.1295844641046795 200 200 200
-0.11673382824035691 -2.087373892004169 4.870066200048356 200 200 200
-0.12364435311264829 -1.8889384916203829 4.970327281811216 200 200 200
-0.21037382516903982 0.9209470700903855 6.450029799187554 200 200 200
-0.12340224224455612 -1.747715171909728 5.097392128496059 200 200 200
-0.1244600339534218 -0.9662604377298201 5.106475727267579 200 200 200
-0.10942908308109832 -2.112633090535561 4.868732951031855 200 200 200
-0.11398826390559642 -1.9460117333909406 4.93888564800438 200 200 200
-0.11332359245822904 -1.944125836201597 4.936865479481595 200 200 200
-0.1229232334422295 -1.0799911664180655 5.094900347950449 200 200 200
-0.12303239324006734 -0.9905213594450832 5.1016459438978305 200 200 200
-0.12303239324006734 -0.9905213594450832 5.1016459438978305 200 200 200
-0.1223738019461 -1.0067495217670308 5.090821681720309 200 200 200
-0.10523121032986212 -2.3048007874645893 4.837800566626806 200 200 200
-0.12113115638906602 -1.7731165336084709 5.119973398100105 200 200 200
-0.1069839433137846 -1.8710895516474735 4.995603442903801 200 200 200
-0.10361357631617307 -1.9157807961139794 4.9609667481569275 200 200 200
-0.09799688030981338 -2.355413455611906 4.851443075645028 200 200 200
-0.09753906053935339 -2.3535392004248243 4.8490898352651906 200 200 200
-0.09753906053935339 -2.3535392004248243 4.8490898352651906 200 200 200
-0.09480987529877379 -2.072157263909525 4.895356527817597 200 200 200
-0.10526046434048315 -0.9506457464024441 5.0995484826391815 200 200 200
-0.10394815883612164 -1.0090151042602105 5.085777580540947 200 200 200
-0.0891490324378219 -2.4672126280419024 4.873325769710401 200 200 200
-0.1832660432415419 1.0539913658998008 6.640912803633725 200 200 200
-0.10170152703326417 -1.3457807254142964 5.129584522848145 200 200 200
-0.08401474840041194 -2.0320315404873193 4.91457355740396 200 200 200
-0.0819199794233301 -2.194580012152836 4.868036930709934 200 200 200
-0.08228499639582855 -0.9773631362048647 5.079364500632615 200 200 200
-0.09197222899945384 -0.635305991756341 5.381841255779291 200 200 200
-0.08101281339143054 -1.705263419808311 5.221700356000049 200 200 200
-0.07147858331862088 -0.875540624020007 5.1001124121288255 200 200 200
-0.06683432135509244 -1.7930411043057237 5.096562780410174 200 200 200
-0.07912751521306861 -0.6141517853044246 5.400146130722457 200 200 200
-0.0631275132816815 -1.008537363339613 5.0619780930693965 200 200 200
-0.054752030741720185 -1.9771201029333658 4.970242074453556 200 200 200
-0.053260349772694865 -2.3140722322236207 4.896524520209648 200 200 200
-0.057662050757545956 -0.9776605883419843 5.064911602266076 200 200 200
-0.06607696278016842 -1.7036196273691508 5.259020239790068 200 200 200
-0.0582532121837325 -0.9153497978555388 5.115680660065641 200 200 200
-0.04287970027933489 -2.091541660610492 4.916871179616599 200 200 200
-0.04796248753957174 -1.2620404304333097 5.0270328961663955 200 200 200
-0.04073211951392187 -2.366266254131979 4.8895688481211526 200 200 200
-0.05574128719774135 -0.6223700584397351 5.366511476997713 200 200 200
-0.04217623558140029 -1.095621395598454 5.045447809796883 200 200 200
-0.047628606458543936 -0.7431340446768534 5.207910888083963 200 200 200
-0.034772401512959954 -2.0285151455243025 4.943679652601769 200 200 200
-0.035177470387325334 -2.028819208578058 4.946214424828794 200 200 200
-0.034803762036277275 -2.106831965083772 4.9402652831430744 200 200 200
-0.03931764491449063 -1.0471948345246662 5.057275563537831 200 200 200
-0.03814561602812395 -1.0048173431806582 5.053899232488125 200 200 200
-0.037580733250348414 -0.8885975490180008 5.078985348275069 200 200 200
-0.031090878349725397 -2.0097163269826184 4.960423425958691 200 200 200
-0.031793816454615265 -2.0120576440067635 4.962766142769109 200 200 200
-0.02385519864152809 -2.27118463506238 4.8889984691164265 200 200 200
-0.021288465772471947 -1.966343118455317 4.996431577881767 200 200 200
-0.02418731844555679 -1.9679459940227684 4.998922392804025 200 200 200
-0.0227251384798385 -1.0263629948979294 5.049977663825042 200 200 200
-0.0227251384798385 -1.0263629948979294 5.049977663825042 200 200 200
-0.0227251384798385 -1.0263629948979294 5.049977663825042 200 200 200
-0.01656215872235771 -2.6017247938815213 4.985813314930859 200 200 200
-0.011185093125302517 -2.1981589076967554 4.9139252168448095 200 200 200
-0.009413696945174492 -2.0814547678462705 4.953254831430624 200 200 200
-0.008089888366411106 -2.6258432802574303 5.00549550580192 200 200 200
-0.004434152259938614 -1.0338690327522126 5.044713580238565 200 200 200
-0.008018886254798444 -1.799683018217698 5.159923092415552 200 200 200
-0.007591667580564271 -1.7972956407512661 5.15697742917482 200 200 200
-0.004699223773358145 -1.951515703697392 5.025198526530985 200 200 200
-0.0043809376712918326 -1.9515524978249137 5.026028276925868 200 200 200
-0.0014667197175223395 -1.826877895279498 5.153920099744503 200 200 200
0.006425710659737377 -1.0832227089285562 5.010452430704247 200 200 200
0.009590722041931317 -2.3677761310289713 4.927611463817263 200 200 200
0.00805017177039877 -2.045427203628265 4.973483956527279 200 200 200
0.008110364748361899 -2.046018625988912 4.973775750514409 200 200 200
0.010076465769494758 -1.124766621323951 5.032772805144307 200 200 200
0.008446669406506591 -0.7838201456629387 5.145665771206803 200 200 200
0.008218615073986933 -0.7838945772537632 5.148388092850449 200 200 200
0.011791290337260093 -1.9347290248661493 5.0524222501899425 200 200 200
0.016254215521086173 -1.3831471534330269 5.038159057447095 200 200 200
0.018164083554733042 -1.205785613905003 5.026630432888113 200 200 200
0.021640158002329234 -2.1207142267092545 4.962097827675727 200 200 200
0.022510877333613292 -2.1862047424910456 4.944209655641643 200 200 200
0.02264333548020684 -2.1844919186804566 4.942106617762068 200 200 200
0.01870326913737112 -0.8547267039373805 5.0900081093821745 200 200 200
0.015352870543695375 -0.7057272034136213 5.227917564902346 200 200 200
0.02688321817936165 -2.255713932605681 4.944788667508243 200 200 200
0.025209695268955487 -0.9154902212698669 5.063068458261084 200 200 200
0.023632633562321332 -0.7661312835510417 5.147943037977575 200 200 200
0.029996642270246652 -2.1503921070528818 4.974970279008688 200 200 200
0.02847241720054038 -1.3935920610416728 5.045997505041512 200 200 200
0.028856624011967487 -0.8145136041088266 5.112760702822768 200 200 200
0.03342687811468365 -2.0387548966610565 5.008666675012512 200 200 200
0.03695233754150582 -2.312241163042212 4.945255087497778 200 200 200
0.03830002916342854 -1.1517576216420566 5.085764162022082 200 200 200
0.042710534812394674 -0.8386185765392619 5.097939102718494 200 200 200
0.04493296256651967 -2.1024982039399394 4.993974445518477 200 200 200
0.04490091672171599 -0.908325058541089 5.079604366697835 200 200 200
0.04445958418678146 -0.7443199119970899 5.180432044708752 200 200 200
0.04668062864865777 -1.8145034329731524 5.2491883594011135 200 200 200
0.0504225880132088 -2.027425014046783 5.035656512451501 200 200 200
0.056291728263391363 -2.202516951001104 4.9799036091513145 200 200 200
0.05778538190219703 -2.1701963506248183 4.985662232861696 200 200 200
0.062162454688788824 -2.4148195882959995 4.992954481759146 200 200 200
0.06336966443277786 -2.4040150004812397 4.989572880540446 200 200 200
0.05890570011026597 -1.8016414869944242 5.304614136410793 200 200 200
0.0644361450853514 -1.9913453237456744 5.067914808798137 200 200 200
0.06785330140184936 -1.3631198190913958 5.042041876161659 200 200 200
0.06555670067975923 -1.9005883994909485 5.1818809850594745 200 200 200
0.06930020770712379 -1.4160537927695902 5.037454077692983 200 200 200
0.07675199910957471 -2.264589633086098 4.977800170330669 200 200 200
0.0766765095481075 -1.2955691211252112 5.024955724991385 200 200 200
0.07784438566933433 -2.3710545737186672 4.989647516035294 200 200 200
0.08281355281053857 -1.1980488108825624 5.024690622829117 200 200 200
0.08254920226733109 -2.100601986489845 5.046310803808411 200 200 200
0.08790043949852844 -2.05626774615602 5.066298407556762 200 200 200
0.08449452401386555 -0.6039133858189842 5.321801204570672 200 200 200
0.09194581918242466 -0.591741914092239 5.358985568503264 200 200 200
0.09609219549795593 -1.5878899128919712 5.13907020077997 200 200 200
0.10397301323425594 -1.377099702097493 5.046755999531224 200 200 200
0.0984260304617997 -1.8324747480922474 5.457707639405707 200 200 200
0.10584900169757615 -1.1724022030673356 5.0151887886130435 200 200 200
0.10563148830457161 -0.8169140877360993 5.098573126773935 200 200 200
0.10529646440837821 -0.8183667983872972 5.103071801860586 200 200 200
0.1084810772796799 -1.2559222291371965 5.017730097363159 200 200 200
0.10884859950241636 -0.8678575525986996 5.066232818583885 200 200 200
0.10884859950241636 -0.8678575525986996 5.066232818583885 200 200 200
0.11078270586258238 -2.1599803190511735 5.050714867299245 200 200 200
0.1122409255999475 -1.297881037664378 5.013856056311566 200 200 200
0.10887075980045616 -1.9150615536442313 5.223170491249729 200 200 200
0.11128580152625174 -0.5909731858972779 5.3581924024060505 200 200 200
0.11462482078179982 -1.3423958061124242 5.036464177681917 200 200 200
0.11456461389903791 -0.5684713981443003 5.405544244647874 200 200 200
0.1207617658803475 -0.5217668656993901 5.312161153042734 200 200 200
0.1230770330667902 -1.0360795779633976 5.06084422689988 200 200 200
0.12511290048013687 -0.753726714349719 5.158769501089733 200 200 200
0.13539484171252972 -0.5985175604173958 5.3079309983335845 200 200 200
0.13851792256278447 -1.9965010093224012 5.175438990889442 200 200 200
0.14693937348934757 -0.6295240375045839 5.29146805589434 200 200 200
0.15698029474437 -2.081522076982788 5.1648606103514885 200 200 200
0.15661149740221197 -0.7715848454241321 5.17495348214283 200 200 200
0.15895374173206397 -1.3284405941815591 5.016031699037429 200 200 200
0.16493613606501573 -1.0766318866187046 4.996218836793169 200 200 200
0.16492373620333073 -1.3824950738512254 5.017826101313148 200 200 200
0.1639181909750966 -1.352798534975037 5.00657405100812 200 200 200
0.17056045059466804 -2.122062865920947 5.148087237196827 200 200 200
0.17996276329273903 -1.3698044056537266 5.005432181500884 200 200 200
0.18382820515017834 -1.1008807678334327 4.9872302234315 200 200 200
0.20163252449939698 -2.092716738659721 5.321406113394619 200 200 200
0.20109173030274366 -2.1368011354794416 5.212292318344221 200 200 200
0.20171483457187225 -1.0857574518040363 4.9920110860648 200 200 200
0.20173376764299308 -1.2089575704439308 4.997556596027254 200 200 200
0.20563651620935786 -1.4054540688625272 5.028626104664303 200 200 200
0.21751297823438254 -2.242283963527216 5.205332885211357 200 200 200
0.24860796507744054 -0.5472428733302032 5.479309669827443 200 200 200
0.2537342815771147 -2.1669642795412614 5.386862211632197 200 200 200
0.30130306909688365 -1.4069105085073128 5.053317916306242 200 200 200
0.32018793868764583 -1.6176013164476906 5.173629888200803 200 200 200
0.3420295522771415 -1.6492822876952968 5.207815916671737 200 200 200
0.36322176408057527 -1.7460653317285346 5.331115353178211 200 200 200
0.3986867725999508 -1.6426698375144826 5.84591928551902 200 200 200
0.414903697635648 -1.7072369380064476 5.742285598910113 200 200 200
0.45516049447370677 -1.7671362401084714 5.502634683786383 200 200 200
-1.2408865222662842 -1.4127118528210403 5.210417106596051 200 200 200
-1.3495653358589816 -1.6798454753245644 5.481683221925959 200 200 200
-1.3228456345049908 -1.3368333575591698 5.489789982163823 200 200 200
-1.2408012055880555 -1.4451260395401364 5.540430392799806 200 200 200
-1.178344232632718 -1.6032020879042432 5.510428392000547 200 200 200
-1.1013531861843686 -1.5881997377084893 5.584960459053389 200 200 200
-1.1013531861843686 -1.5881997377084893 5.584960459053389 200 200 200
-0.9658302411693458 -2.4355870257598857 5.1019308874694955 200 200 200
-1.0802378995230788 -1.2506103311163486 5.617969117499961 200 200 200
-1.1680111535798838 -0.9139554390565424 6.105480745914306 200 200 200
-1.0692788850869952 -2.1706460659927806 5.762275106721606 200 200 200
-0.9578979445906429 -1.5605011775755064 5.623400666568446 200 200 200
-0.6989895001709738 -2.158225964005135 4.805220255170403 200 200 200
-0.8006607680612038 -1.758339790219846 5.562202579027759 200 200 200
-0.666745295353612 -1.8501095326311754 4.901831033282773 200 200 200
-0.748694337993877 -2.6244666219676778 5.431987449166662 200 200 200
-0.8902178670075377 1.074552916761859 6.225974642260874 200 200 200
-0.6686125524094481 -1.7241434247287206 5.024853039396358 200 200 200
-0.717340897835165 -2.3672123776253566 5.410012350502957 200 200 200
-0.6570380601883874 -1.7645503332941748 4.990905478989327 200 200 200
-0.6415354826399514 -1.8131742486902982 4.934078340864034 200 200 200
-0.7990303741721024 0.2105749975029858 6.0667030788487555 200 200 200
-0.7971105292719112 0.19360432676489644 6.065706696228238 200 200 200
-0.7479669207520423 0.15663597068203497 6.053714895600248 200 200 200
-0.7196963210403965 -0.8627213470310865 5.915965749505339 200 200 200
-0.5531649456104262 -1.8008771529491476 4.922513405948254 200 200 200
-0.5480538497016795 -1.7517022865491085 4.962570437116 200 200 200
-0.7169242244973977 0.7701301881040444 6.2065508525289435 200 200 200
-0.5125817001804157 -1.6873910716850478 5.033183672165052 200 200 200
-0.6386854426143758 -0.35690107409441585 5.982421080406889 200 200 200
-0.4858418265597971 -1.811771163492318 4.904601406362455 200 200 200
-0.5645931365777105 -1.1991298424731198 5.550505230240301 200 200 200
-0.4676606843357293 -1.859992384874074 4.861315572017297 200 200 200
-0.47454753792597193 -1.777026996236901 4.9399259089179965 200 200 200
-0.6228632956749469 0.5939083885762317 6.20753168737097 200 200 200
-0.4561745461082376 -1.7970391991298706 4.928725436501348 200 200 200
-0.4396974549992555 -1.9594991355469764 4.825079840201916 200 200 200
-0.5842871503804541 -0.07182332164833712 6.025101133405603 200 200 200
-0.5186796448825699 -1.2860842700788946 5.5245628684825006 200 200 200
-0.5738007357721598 -0.2756031592109502 6.004556031967122 200 200 200
-0.5866028807316042 0.7299683628951867 6.217939488765957 200 200 200
-0.4090185578532568 -2.3014646078157663 4.773244512446403 200 200 200
-0.512477836443936 0.24905388847454393 6.065696727583458 200 200 200
-0.5220903841730744 0.7389745351746733 6.232259216984532 200 200 200
-0.3580565334382339 -2.14548721561193 4.771179991316165 200 200 200
-0.4729274099974464 -0.23109814662614261 6.05566885227563 200 200 200
-0.29692244196286766 -1.8620127936675865 4.892963177591765 200 200 200
-0.39973086710776196 0.1030425509947005 6.122830739539186 200 200 200
-0.2473541318962424 -1.9722446118665364 4.860464358288111 200 200 200
-0.2446152495136117 -1.9333899939855241 4.876369163635428 200 200 200
-0.35421847238872683 0.2052674816846887 6.157597827215894 200 200 200
-0.38998517239223296 1.0030662228402305 6.587838233638678 200 200 200
-0.246081074722726 -1.7196756277056144 5.047955664800959 200 200 200
-0.2345697435685753 -1.7678225805654 5.004771049864627 200 200 200
-0.21178830285611208 -2.1212344388365936 4.819781482894317 200 200 200
-0.32117602319333177 0.20991568046358594 6.1887859315077325 200 200 200
-0.23397307038487372 -2.8554562931659424 5.101997070105843 200 200 200
-0.23725614393822955 -2.93176853253675 5.236792018251142 200 200 200
-0.16821637027918507 -1.9881370358034358 4.88079603096995 200 200 200
-0.16210657392320016 -2.397126637450321 4.825617178413579 200 200 200
-0.1522268677230756 -2.0846609831651537 4.852509167525943 200 200 200
-0.1435539326831882 -2.062378340503271 4.858991620345735 200 200 200
-0.1328130815344566 -2.0207014633908518 4.889756945363776 200 200 200
-0.13638670379776832 -1.8981267974259037 4.950004392918912 200 200 200
-0.11789650460450588 -2.4653278996403984 4.854315497311182 200 200 200
-0.11927452447703951 -2.3990978505881424 4.833910729816165 200 200 200
-0.13645107510897134 -2.5592543545757493 5.526936438430243 200 200 200
-0.09394323431244976 -2.4338735788055454 4.859365258077805 200 200 200
-0.06165755704498832 -2.0598986059002935 4.913318226977786 200 200 200
-0.005669536085899399 -2.136524212168084 4.938603827629109 200 200 200
0.022083250119851912 -2.0039741937428084 5.020572519504184 200 200 200
0.04790084565968426 -2.219841790703502 4.958402742094967 200 200 200
0.046964021797177055 -2.2231415050043597 4.963784589102002 200 200 200
0.06764926672926677 -1.3622674603955427 5.042394994418079 200 200 200
0.06915216916173778 -1.411458544589745 5.048056860837483 200 200 200
0.19339256498112697 -2.068518172053879 5.698852978226029 200 200 200
0.21560415231876168 -1.8627378467240796 4.590123194027728 200 200 200
0.2395731013789115 -2.3818273581562934 5.274640681734695 200 200 200
0.36127569800846754 -1.5069577349285075 5.949279931729093 200 200 200
0.40558961272639404 -1.5595292381589803 5.937710068636301 200 200 200
0.5114130199771221 -1.517740577099865 6.063974407919007 200 200 200
-1.3292784729421794 -1.6089189844938516 5.457520764819528 200 200 200
-1.312093199511465 -1.397731976833305 5.4386045984131215 200 200 200
-1.3019995033016034 -1.3087424109619508 5.4582772375422115 200 200 200
-1.2878556979608187 -1.4702559530368917 5.4493084613193155 200 200 200
-1.2626651212888285 -1.6821455237652612 5.492237394453828 200 200 200
-1.234955835378587 -1.6132781264809097 5.484024465290011 200 200 200
-1.2424601519347371 -1.713257681825286 5.500505352406291 200 200 200
-1.2249893526861937 -1.35523543376402 5.51725752257111 200 200 200
-1.0244719973890923 -2.3409937928710245 5.1338973294972785 200 200 200
-1.0399307861369727 -2.003439988517996 5.218100387544171 200 200 200
-1.099375620963993 -1.8213076588166865 5.426009937439602 200 200 200
-1.1034593876001817 -1.2873175443145934 5.587732284894561 200 200 200
-1.0915296544388269 -1.2289291145854115 5.607776834469514 200 200 200
-0.8891000057460103 -1.8007716222604426 5.050992770771419 200 200 200
-0.8380408755937391 -2.004756457722744 4.910721304472076 200 200 200
-0.8100043147237291 -2.0895851133984005 4.8645787480695155 200 200 200
-0.8140795912159969 -1.962189058915642 4.894500486600173 200 200 200
-0.8031038323369736 -2.1737776627699694 4.847671705308986 200 200 200
-0.7453253925364429 -2.2146934558461693 4.818441237408874 200 200 200
-0.7620305831846728 -1.8589917306286288 4.933806460045369 200 200 200
-0.9724944015746901 -1.1707144271343142 5.6791320626279775 200 200 200
-0.9778517768684942 -1.5837480234236534 5.651999866288751 200 200 200
-0.9451342341739459 -1.1061609776552244 5.749174595713582 200 200 200
-0.6814849948101394 -2.001707839835906 4.8541673284527205 200 200 200
-0.9405499286977151 -1.8081650925561865 5.821030059052121 200 200 200
-0.6322788405408772 -1.9256583616792997 4.853697016109158 200 200 200
-1.013819334490881 1.1125991141345406 6.6411228537651175 200 200 200
-0.6210296795069888 -1.7672039152772274 4.961487936920462 200 200 200
-0.5843887310762238 -1.838377202327005 4.882458997896771 200 200 200
-0.5730741792032276 -1.9207754078747292 4.856073716424332 200 200 200
-0.5677595446744524 -1.9198819865641237 4.846190636559785 200 200 200
-0.5833786468162409 -1.7444328936719602 4.985033737476232 200 200 200
-0.5500026326182005 -1.8746458725888515 4.855626057174838 200 200 200
-0.5378787113828838 -2.017765100918568 4.80236131133873 200 200 200
-0.5374147237615334 -2.0172266075177525 4.801336287829596 200 200 200
-0.7839273198770822 -2.6873543734795504 5.6378415936072175 200 200 200
-0.6434482218848467 -2.862736401052123 5.1005760833730704 200 200 200
-0.5713849457194583 -1.6891107918850676 5.034954295272265 200 200 200
-0.7417352196236264 0.12003175735497015 6.0425986306827415 200 200 200
-0.49710816768459787 -2.0782397237873615 4.781948229510748 200 200 200
-0.4898929270747878 -2.2903761399081035 4.739854949690505 200 200 200
-0.5017253936581938 -1.8364812506239134 4.897031473799942 200 200 200
-0.502097696105418 -1.8380482284053523 4.900541065419516 200 200 200
-0.4912131785495265 -2.459742969965667 4.7758698191625895 200 200 200
-0.5015657498182088 -1.7523792615917475 4.962434592242768 200 200 200
-0.6767778341676253 0.01883555799688968 6.025544799042673 200 200 200
-0.44396056486153274 -2.1469737956243167 4.768613766884357 200 200 200
-0.664588800573991 1.1652078058021793 6.2272631301497565 200 200 200
-0.4764024166369051 -1.6938328059577745 5.024904609962272 200 200 200
-0.6654394014342254 1.3419482444322206 6.315866084654679 200 200 200
-0.729848882112505 0.1945490376788521 6.371086644311547 200 200 200
-0.6513178637426608 0.9298432839970329 6.236250020612342 200 200 200
-0.7367354114960297 0.9378824077355449 6.6078160446400895 200 200 200
-0.7367354114960297 0.9378824077355449 6.6078160446400895 200 200 200
-0.6346601910559743 0.893221082096474 6.224948350895534 200 200 200
-0.474790381213515 -1.6160017676462195 5.141190398701552 200 200 200
-0.6129183609029547 -0.44911555824779226 5.947422003124282 200 200 200
-0.6113834099139811 -0.18748989375143477 5.99617296754282 200 200 200
-0.3980776114629814 -2.1779035844422245 4.769197914079448 200 200 200
-0.617207266957928 -0.14674309263696445 6.029608244112266 200 200 200
-0.46315056284412015 -1.5707588901066663 5.149308506875782 200 200 200
-0.3923727381354577 -2.111039163167195 4.777030766732388 200 200 200
-0.39007027472416317 -2.0650254822398817 4.787922796803962 200 200 200
-0.5882097465469287 0.3258618340518733 6.0620179479147245 200 200 200
-0.39052986959439623 -1.8339910071194148 4.9074573627412486 200 200 200
-0.5729818658307276 -0.5759337365258277 5.9093066431944985 200 200 200
-0.3823465238098843 -1.8790414534299642 4.877188747905098 200 200 200
-0.36399421787247727 -2.110854445912776 4.784063357567636 200 200 200
-0.3630824180168426 -2.1038528125275975 4.781244714986207 200 200 200
-0.7020629091857149 1.1059499568349869 6.82388177790828 200 200 200
-0.5612379712062342 1.2009839614231426 6.258535091459675 200 200 200
-0.37341355626507666 -1.8103141590032914 4.914992310483746 200 200 200
-0.5316969031967944 -0.4438750354871295 5.9584364827904395 200 200 200
-0.34834988851619414 -1.8019750574331455 4.954586772290468 200 200 200
-0.5160752236745915 1.220686589920635 6.296990209415147 200 200 200
-0.48840386393142815 0.34935733283254095 6.08148452582398 200 200 200
-0.35051088055534985 -1.6803324592709847 5.069895648830472 200 200 200
-0.4956593683936276 -0.517163920224475 5.952756056936933 200 200 200
-0.4956593683936276 -0.517163920224475 5.952756056936933 200 200 200
-0.48581779373144784 -0.6023887676725431 5.901755187023309 200 200 200
-0.3260059661320813 -1.7694131404854603 4.974066980902471 200 200 200
-0.49701736546426567 -0.3741991028003387 6.018589747691896 200 200 200
-0.48266270509688614 1.118148207112185 6.271304056241347 200 200 200
-0.40927772990666084 -1.1431442729038943 5.505697596084223 200 200 200
-0.34118256349989745 -1.6265264830105497 5.154850272544269 200 200 200
-0.32903474551562717 -1.6416879852088337 5.119496656270364 200 200 200
-0.27899448926458126 -2.036298977565439 4.813857546838646 200 200 200
-0.4508800859805665 1.227295174399907 6.319992808345969 200 200 200
-0.26607298817660346 -2.124955644561087 4.797815840569398 200 200 200
-0.30891269052026277 -1.6725554207849531 5.091832429844455 200 200 200
-0.44989655476310664 -0.5262432647770471 5.986416442197858 200 200 200
-0.2680470206771608 -2.3921896415409862 4.777841633842959 200 200 200
-0.45085096372111116 -0.15587395515796462 6.140091423485928 200 200 200
-0.2514586894368079 -1.9248413712413086 4.876146607649707 200 200 200
-0.5141226286890166 1.1502334403190557 6.776375097011953 200 200 200
-0.42886057498335634 -0.4093751347487355 6.042139711454496 200 200 200
-0.42545722856289697 -0.23666009409577132 6.078533447070381 200 200 200
-0.2740757670256423 -1.6923757130259673 5.067029044424449 200 200 200
-0.27531558937274797 -1.693341776844942 5.070757548505974 200 200 200
-0.4331533739947096 0.5835388194697732 6.328173093446674 200 200 200
-0.41660856987828593 -0.20595057182015472 6.11145790526494 200 200 200
-0.4125336157622382 -0.2283491232038818 6.1024427438705375 200 200 200
-0.22122638058855437 -2.4283968895460877 4.7995053247802835 200 200 200
-0.22982847964210668 -1.7921560897314115 4.984477811235964 200 200 200
-0.3847338009949595 0.605328304015956 6.333510680506981 200 200 200
-0.3483896754035097 1.2361664018092562 6.400995273762489 200 200 200
-0.19750194603246835 -1.8748027276644914 4.932313189268145 200 200 200
-0.19533512197657985 -1.915974659570771 4.905184294421807 200 200 200
-0.21369827303833105 -1.7391346697550327 5.045213364464232 200 200 200
-0.22044284103914555 -1.7019844885479678 5.088247716418248 200 200 200
-0.18311992324913756 -2.087771295525264 4.81224432679799 200 200 200
-0.3584061351889045 0.01795689570992179 6.187007634170427 200 200 200
-0.20813868087312834 -1.7615360068120998 5.027407467236162 200 200 200
-0.33015772163542323 0.8820539272050194 6.357565016442019 200 200 200
-0.3243745548465993 0.8276438208767717 6.388700238743023 200 200 200
-0.1592252436159956 -2.2757068643780274 4.812629013310137 200 200 200
-0.31620087811803105 0.8712060287839448 6.397664475131257 200 200 200
-0.16158774147553703 -1.882218442483738 4.940171938013801 200 200 200
-0.308157465067919 0.22702327687904789 6.224134547976449 200 200 200
-0.16779557079109125 -1.8010228504587285 5.006221777598152 200 200 200
-0.3169301128096985 0.12859428019978636 6.24416737172344 200 200 200
-0.16472493268094654 -2.1789852037016724 4.910017295496231 200 200 200
-0.30591924743086274 0.8193440826085953 6.4040633902505 200 200 200
-0.16016835490104478 -2.488108823360544 4.826635433743694 200 200 200
-0.15279109918118378 -1.9280748761191608 4.927366353119228 200 200 200
-0.3038633636041212 0.7660009619502649 6.423799343360035 200 200 200
-0.16398329526705513 -1.7599490843800933 5.049369497192024 200 200 200
-0.28826574829795826 0.218345952086689 6.238962828362716 200 200 200
-0.12854177083746768 -2.0370358832704287 4.884039185509203 200 200 200
-0.12013685325806435 -2.156528641794911 4.839067818464857 200 200 200
-0.1270681304701492 -2.064061790193589 4.89387060362679 200 200 200
-0.13551572804648035 -2.5815178373790117 4.886509098831994 200 200 200
-0.13551572804648035 -2.5815178373790117 4.886509098831994 200 200 200
-0.26812900251167715 0.8503553419700748 6.587403171332479 200 200 200
-0.28538943889925056 0.5265086630817345 6.636823039798007 200 200 200
-0.2508250851175273 0.6300242125969268 6.717576254761921 200 200 200
-0.07419378818700241 -2.474326263900972 4.885527245476339 200 200 200
-0.05175349681415659 -2.1453796249455475 4.8955840041693115 200 200 200
-0.06239024535105791 -1.8250844488012472 5.052629281350494 200 200 200
-0.04938488507244401 -1.9294268473584781 4.990024839155346 200 200 200
-0.042767984776647304 -2.048203216638542 4.931067936860882 200 200 200
-0.024694831864829837 -0.7249484148279303 5.234898384496585 200 200 200
-0.044157036858310475 -1.859690485651179 5.033170841083207 200 200 200
-0.022596551093222526 -1.9937066233407879 4.973979489138564 200 200 200
-0.009147238736300582 -2.0817684419450777 4.95302284942861 200 200 200
-0.01529185837626257 -1.9008948281162028 5.059838357071249 200 200 200
0.0334723622931294 -0.9776464277866327 5.052017579485635 200 200 200
-0.0031981085244688137 -1.5349722970201263 5.122518522864788 200 200 200
0.026892745183100548 -1.3471175116329162 5.056913929901817 200 200 200
0.0036603469099752706 -1.5758103068420244 5.153345358692077 200 200 200
-0.018056306861515985 -2.6053628748144178 4.989065071281985 200 200 200
0.004751240695337547 -1.8905838275638345 5.071657745537236 200 200 200
0.032938070379931884 -1.394815931937009 5.063045860654283 200 200 200
0.012347599883542735 -2.2819591921655533 4.923383918095554 200 200 200
0.01076988709739519 -1.9364016208472201 5.056080743065262 200 200 200
0.06376116119131682 -0.8533245049753049 5.102168410296879 200 200 200
0.019343936818480192 -1.906575250549497 5.074097544761563 200 200 200
0.06875652165775191 -0.8001396093768791 5.120609043583898 200 200 200
0.06480395041678845 -0.7556297131170071 5.171811705273168 200 200 200
0.07769289616386407 -1.09054625664416 5.010652765237849 200 200 200
0.08685568104643705 -1.2687268532505422 5.017580911287241 200 200 200
0.036408540774872857 -1.8389498507661564 5.189175459491708 200 200 200
0.06271190111154064 -2.004382087931343 5.0356646014694775 200 200 200
0.06697390450832141 -1.920453096204179 5.125792674204652 200 200 200
0.04887901309904358 -2.6226583860351753 5.051175079929475 200 200 200
0.07049378130837808 -1.8575127909280542 5.231910140573272 200 200 200
0.13187724727781341 -1.2564776875764962 5.0094284747061275 200 200 200
0.14343742808145438 -1.0734446554866848 4.996830890621266 200 200 200
0.08358438629588374 -2.3591604448833148 5.000617649592151 200 200 200
0.13008678288994424 -1.369830991284193 5.052211337705358 200 200 200
0.09158664174063348 -2.427813119951729 5.008094768652197 200 200 200
0.08758254925944746 -1.7935943912719226 5.283068233952674 200 200 200
0.1649047352721804 -0.808306127203848 5.100743779630543 200 200 200
0.11218829535251418 -2.4434524116523018 5.029328415551809 200 200 200
0.117411226041606 -2.334710382456324 5.036532024213651 200 200 200
0.06333948132148924 -2.3922152432898933 5.496638537438508 200 200 200
0.12812820406680206 -2.0302952721031757 5.130343938419636 200 200 200
0.13597818189504257 -2.3224365209334246 5.049421759782328 200 200 200
0.192366777375733 -1.2835540307965514 5.003088955967982 200 200 200
0.13347408070380568 -2.000392815623914 5.175365762754795 200 200 200
0.12946033385853417 -2.3777191276042444 5.104038664369279 200 200 200
0.07830867046829171 -2.4391253863254403 5.53616864150177 200 200 200
0.15251210158152112 -2.072754464161876 5.114893763173058 200 200 200
0.15802590430905689 -2.084593248543769 5.164302911788974 200 200 200
0.15498411252037328 -2.0409087096794485 5.1785321978525305 200 200 200
0.16328496965786207 -2.4324649969051992 5.089334873211742 200 200 200
0.17200978155823168 -0.8969851612785031 5.829226113824762 200 200 200
0.18005242607765204 -1.2368556419581471 5.8971960360710485 200 200 200
0.1960484649422449 -1.220831894674446 5.936104636747084 200 200 200
0.22023772743485678 -0.9053791784359456 5.895452743723066 200 200 200
0.21699576486824138 -1.0281217520566626 5.9585171115832765 200 200 200
0.1829755270882893 -2.5718135089172742 5.545206460296459 200 200 200
0.28990988456906785 -1.4872155749465292 5.066247012064867 200 200 200
0.2988157455886274 -0.8688703154415741 5.9686035695453725 200 200 200
0.43534719120953863 -1.2513883451868242 6.137326916868779 200 200 200
0.4381041883038861 -1.2974318757469412 6.131802813312798 200 200 200
0.4414092666152463 -1.635661521092369 5.934790049278466 200 200 200
0.4724230679310254 -1.1732358151095923 6.161952036539119 200 200 200
0.47022393451973843 -1.2318655805011232 6.161694686004932 200 200 200
0.4678491742881083 -1.364204970009488 6.1396726279833285 200 200 200
0.4852086492253652 -1.8070696746692152 5.746189071491326 200 200 200
0.4897598043663134 -1.4120765200387477 6.121806349657757 200 200 200
0.5119741844290594 -1.5923441661527846 6.041590217138738 200 200 200
0.5380645610084474 -1.473702290524782 6.1257414687728104 200 200 200
-1.1427621915239006 -1.9743970071071038 5.246586594648208 200 200 200
-0.6508268522860506 -2.6126575449350016 5.516920107704091 200 200 200
-0.5749392878642922 -2.9462983948814587 5.848086568270758 200 200 200
-0.3084463809953098 -1.886913878010767 5.225549453165793 200 200 200
-0.010906366343091957 -2.462035629820133 5.558733654624752 200 200 200
-0.05807659500934383 -2.4451390092280367 5.245418592801078 200 200 200
0.16062584624737045 -2.578159860017536 5.491102858136254 200 200 200
0.2411431568299589 -2.4042030455962737 5.636564544091214 200 200 200
0.33478190848174727 -2.4241340153298268 5.611593534520208 200 200 200
-1.0594026569909907 -1.8856430997880231 5.263051319166181 200 200 200
-0.9969555727148747 -1.8989049810424612 5.325399395729322 200 200 200
-0.9125514889828579 -0.028053954769200702 6.176714770536228 200 200 200
-0.5949108220396819 0.7729216228428011 6.21573730924547 200 200 200
-0.4828255336416372 -2.559176838357674 5.4552879544471375 200 200 200
-0.3692301301946415 -1.6136054097817245 5.156429819530203 200 200 200
-0.2941496112743029 -1.9593164336880442 4.85474978410996 200 200 200
-0.23147258759424338 -1.8861461429097572 4.9000735487837295 200 200 200
-0.2354691161419385 -1.818235234037846 4.955976331716291 200 200 200
-0.1107289998975767 -2.1144494323971017 4.872170826017278 200 200 200
-0.06726713036039773 -1.9354173323052808 4.9776003759811065 200 200 200
-0.007409887309753339 -1.8975112535628795 5.0550905619463595 200 200 200
0.25955400442386084 -2.2708717428668117 5.753284597158192 200 200 200
-1.8082506780908725 1.6472709244752566 8.930557846140053 200 200 200
-0.8175118094007083 -1.761259872964328 5.549567444235674 200 200 200
-0.7432527707915081 -2.821830626544935 5.81728105896071 200 200 200
-0.6078119335553216 0.2186343618229419 6.041702440585781 200 200 200
-0.5900257925370922 0.34487744564565187 6.036181942604824 200 200 200
-0.38110120034020606 -1.8747529154216076 4.872322592688172 200 200 200
-0.38110120034020606 -1.8747529154216076 4.872322592688172 200 200 200
-0.35011480084045143 -2.062641536285182 4.794523114354298 200 200 200
-0.3134147107850809 -1.9000059523040886 4.886759434191427 200 200 200
-0.2778756956920989 -1.7728524657515197 4.9763979561938365 200 200 200
-0.2572220131980605 -1.9591639484112657 4.864140197224262 200 200 200
-0.24489636309295426 -2.0174693652267113 4.837920042987284 200 200 200
-0.19491967577629513 -1.9158492857865748 4.905284419448195 200 200 200
-0.3464480200115898 0.9153464212604522 6.363654625779972 200 200 200
-0.1866631448977407 -2.335360954178061 4.80640672733093 200 200 200
-0.35253443811402063 0.6474839814348021 6.373997497852007 200 200 200
-0.3113289936546522 0.9928722083732516 6.374280541915155 200 200 200
-0.16335920473352025 -1.7218967693802456 5.109475488171341 200 200 200
-0.12924288119390306 -1.768559235092488 5.077822968645883 200 200 200
-0.08856567435348624 -1.0461944832788128 5.078358332410125 200 200 200
-0.01935979886941032 -2.3798011433146065 4.899237941193962 200 200 200
-0.02061244573475089 -1.7933550874087634 5.160320488407781 200 200 200
-0.08514346631569131 -2.904057781926352 5.3022745516011485 200 200 200
0.05280747148979114 -2.026535599506983 5.03179567498886 200 200 200
0.09562864106350687 -2.0689002197470896 5.055131664363815 200 200 200
0.4876378680121598 -1.418045744933469 6.158307899856146 200 200 200
-1.231913360850654 -1.20917693414677 5.50738901731571 200 200 200
-1.1961416989479363 -1.5136305124827205 5.4672935374159435 200 200 200
-0.9910406301789618 -1.8502403612022136 5.147869603255995 200 200 200
-1.1667886641266167 -1.6082029100916688 5.497525535617168 200 200 200
-0.9989152162494576 -1.5294079122582382 5.589307832845064 200 200 200
-0.9285989759433801 -1.2455033700365443 5.608019837172248 200 200 200
-0.5705395596130253 -2.0010567688597978 4.8050313425117 200 200 200
-1.3644809002734961 -1.994780434045478 6.183377833068275 200 200 200
-0.5194404647645401 -1.9867727978616172 4.807295252237588 200 200 200
-0.5098685656530927 -1.9590748487647673 4.8171805907920815 200 200 200
-0.5015707578747473 -2.172427655286979 4.75348389961052 200 200 200
-0.5373923504257258 -1.7133804845930318 4.98629546213912 200 200 200
-1.0251385541253957 -2.5608294359024053 5.719123977623582 200 200 200
-0.5000623871126045 -1.7077624687062232 5.001360578465758 200 200 200
-0.47416513376878183 -2.4751409604389716 4.76285636806817 200 200 200
-0.4748683352658768 -1.6911245372334867 5.022587673136037 200 200 200
-0.4332443131235051 -1.7241639284183858 4.993706711718065 200 200 200
-0.4839843949442192 -1.6193354653227736 5.1380531464502255 200 200 200
-0.625503854406584 -1.7914249684420163 5.363129755621473 200 200 200
-0.3623753833085924 -1.8617138897604268 4.8796243608267345 200 200 200
-0.6661296813824138 0.6717564046577789 6.197081643121994 200 200 200
-0.6385061368988911 0.0019470275359358376 6.023916818591976 200 200 200
-0.6385061368988911 0.0019470275359358376 6.023916818591976 200 200 200
-0.34505567474664656 -1.743728059726899 4.979583960431541 200 200 200
-0.6175451458152874 0.7355783424823146 6.208575900467954 200 200 200
-0.27669413396371534 -2.0330233327475042 4.812313242679865 200 200 200
-0.6964697949864063 1.2309516516504206 6.552497847500276 200 200 200
-0.32184621396989277 -1.7378114039510166 4.9997788972455925 200 200 200
-0.5801013699743592 0.8116477018907345 6.228343325091638 200 200 200
-0.5300108309425827 1.2314303273776128 6.267887877729915 200 200 200
-0.29188737110383806 -1.7765402955399314 4.977951288924212 200 200 200
-0.5682083879436794 -0.02371828445008837 6.03040400825055 200 200 200
-0.5273086565133881 0.8512890783320247 6.244171100333168 200 200 200
-0.5467578320233375 -0.08996404998473731 6.031596108995176 200 200 200
-0.23918381729833665 -1.8351992262919694 4.927294760716575 200 200 200
-0.48538806664456546 0.9399937699170208 6.264194086527178 200 200 200
-0.6173084151587 -2.567661354057799 5.537050548017445 200 200 200
-0.20017315747973616 -2.035063956504626 4.852040388487603 200 200 200
-0.19694194535710038 -2.085916911721588 4.833094903734453 200 200 200
-0.4532634362936385 0.9274537208269228 6.254661105274232 200 200 200
-0.22495791175752747 -1.7855300397768927 5.004088580389484 200 200 200
-0.48612836750399907 0.6579481229205058 6.260682033519781 200 200 200
-0.4749243251802535 0.7158428743900561 6.265544697147482 200 200 200
-0.46140175643365827 0.7473887006318372 6.263961787408232 200 200 200
-0.24311925501072063 -1.687141785237138 5.10370055406982 200 200 200
-0.4793573141038528 0.5596122831623911 6.255890599432469 200 200 200
-0.21642771488363174 -1.7413193047348494 5.049985802407131 200 200 200
-0.1756936436537166 -2.3023432387627447 4.803108810113655 200 200 200
-0.4097702539018373 1.1890787520870454 6.323830289181155 200 200 200
-0.4147064341733089 1.035440923517504 6.298914695989595 200 200 200
-0.39446243734757475 1.126274372513246 6.3051786416460445 200 200 200
-0.4037771672299504 0.9282024479602398 6.2911340885229174 200 200 200
-0.4164025032612544 0.8618655155408829 6.29972819768452 200 200 200
-0.21322278489186647 -1.6862829390944634 5.128219992222713 200 200 200
-0.22506455669331193 -1.6626924689170959 5.172250400866098 200 200 200
-0.3861907767325239 1.00727508730367 6.308260502958479 200 200 200
-0.19808045027900326 -1.7038426638351323 5.112112134555386 200 200 200
-0.4338077883373403 -0.14442105294756608 6.090708855166671 200 200 200
-0.3595979254289003 1.1408217495370907 6.337091682913463 200 200 200
-0.3595979254289003 1.1408217495370907 6.337091682913463 200 200 200
-0.4315314226999699 -0.23898115418720423 6.090931652475541 200 200 200
-0.4197640250979182 -0.14350294711616005 6.1080650641251495 200 200 200
-0.11789741313727747 -2.196227394683727 4.847017196537045 200 200 200
-0.1120894661127142 -1.9966383422020981 4.909880566995438 200 200 200
-0.19664921566873092 -1.6421807932641832 5.215354225452732 200 200 200
-0.19664921566873092 -1.6421807932641832 5.215354225452732 200 200 200
-0.03814601036008464 -0.9579168478075953 5.082162741857246 200 200 200
-0.41715804211944735 -0.4121331264338814 6.083597172720605 200 200 200
-0.37386060340215654 0.6838781688287834 6.337377023979665 200 200 200
-0.37716841817529084 0.03429994101380421 6.1573206203777175 200 200 200
-0.36803795140147794 0.10825404486917224 6.18133422612636 200 200 200
-0.10176456223804384 -1.8550685111644927 5.009806609991286 200 200 200
-0.3717539333892698 -0.020356727805057137 6.167214650127742 200 200 200
-0.3723656856436043 -0.055050224324512266 6.180062859889606 200 200 200
-0.1129777572160019 -1.7663758507456204 5.104587270856427 200 200 200
-0.2950697415425763 1.2319127086180004 6.446925879479028 200 200 200
-0.2986635279990946 1.0378241481306014 6.397253784142283 200 200 200
-0.09752808690996881 -1.7883769468640183 5.084033380700984 200 200 200
-0.27595385621750107 1.1264523127285972 6.423367333314401 200 200 200
-0.3273631130622314 0.07532093313781951 6.226380111609719 200 200 200
-0.3273631130622314 0.07532093313781951 6.226380111609719 200 200 200
-0.31040228740757836 0.1681007404977594 6.238520936193785 200 200 200
-0.057543532223368936 -2.317470866408511 4.9007884639030745 200 200 200
-0.057543532223368936 -2.317470866408511 4.9007884639030745 200 200 200
-0.2626410400213142 1.0843294075666905 6.438763220196407 200 200 200
-0.2987336450430164 0.8149915429861115 6.441709392567711 200 200 200
-0.06831490727526587 -1.8004279442693165 5.098776855788355 200 200 200
-0.2572071929650457 1.1691822847910696 6.485040030056751 200 200 200
-0.32440748191498847 0.5625298368274501 6.45599057758463 200 200 200
-0.3009773863465159 0.6651288232623335 6.4749721821576935 200 200 200
-0.24308300975853617 1.1444046913402413 6.4945037999382 200 200 200
-0.26681791994307485 0.8923847194791577 6.471042423014763 200 200 200
-0.2813709229694279 0.18206975603168954 6.288854291621252 200 200 200
-0.28663428927183277 0.7091409924062129 6.481394674984545 200 200 200
-0.2730387777443834 0.20865021766584135 6.2920099464855275 200 200 200
-0.236557680514709 1.0051679716448536 6.467758156990181 200 200 200
-0.0488564456278797 -1.77527334981791 5.151761963164382 200 200 200
-0.0488564456278797 -1.77527334981791 5.151761963164382 200 200 200
-0.27736182871205023 0.15884873609609743 6.303936720318141 200 200 200
-0.2874760759577858 0.6869689696462505 6.500195084291911 200 200 200
-0.2622446135436712 0.8355672025185635 6.501867863776993 200 200 200
0.10420686698181965 -1.1660907769328959 5.009656637693361 200 200 200
-0.012955899685069182 -1.87524088355456 5.078334007036574 200 200 200
-0.01293216946810015 -1.875184704212725 5.0787171438835905 200 200 200
-0.016227224190011682 -1.8622950269607559 5.092062188859161 200 200 200
-0.2621657648342117 0.18942864417430344 6.339812649009238 200 200 200
-0.2231959542822951 0.9743812640688206 6.504008377890813 200 200 200
0.1252300151471652 -1.1101014172116965 5.012903120564185 200 200 200
0.006047662993267152 -2.3758126786624985 4.930273384094867 200 200 200
-0.20535040506778815 -1.9519669861677165 5.600367740473684 200 200 200
0.04301931310743163 -1.9280531894321966 5.103119454011309 200 200 200
0.05495748821393683 -2.011599219345806 5.052089827240922 200 200 200
0.04057483977333986 -1.8711902549113142 5.143482879467489 200 200 200
0.04216582432462453 -2.338936372643702 4.9857264870196065 200 200 200
0.058578408491486565 -1.944789885000965 5.1148831844969065 200 200 200
0.07720058781864311 -2.0457675955212657 5.046479369686178 200 200 200
0.04346702536201402 -2.5027045866064768 4.9970685281954585 200 200 200
0.18656196457199892 -1.3398438388520761 5.03784907962155 200 200 200
0.0719594568453653 -2.376211376653565 4.988709285924824 200 200 200
0.08269491490199551 -1.9748123781118805 5.11879660185049 200 200 200
0.03017037242720627 -1.7643027755566896 5.323913528277957 200 200 200
0.09598758286420819 -2.0231322410241805 5.098523325529023 200 200 200
