ply
format ascii 1.0
element vertex 672
property float x
property float y
property float z
property uchar red
property uchar green
property uchar blue
end_header
-0.28003302421445947 -0.04510338325223768 2.583203072956709 200 200 200
-0.27756383859612316 0.0861490878292999 2.5895642675939854 200 200 200
-0.27694776505638824 0.0340645309794154 2.588115030819821 200 200 200
-0.26616499343933697 -0.07483528613864524 2.6042514343531957 200 200 200
-0.2640833160868586 0.012991283568651727 2.6095892731620394 200 200 200
-0.26174407645158887 0.06655194906668796 2.609651495668027 200 200 200
-0.26220820219889684 -0.0668929959710963 2.605973598843537 200 200 200
-0.2543980201449741 0.014217125871777586 2.607114710846953 200 200 200
-0.2543522785266822 -0.07916094534702021 2.6060693009703533 200 200 200
-0.2519590265439997 0.07435535498963647 2.61717535603964 200 200 200
-0.25495712400149906 -0.13669078413387065 2.6039244693890464 200 200 200
-0.25423380634049036 -0.0945259554388458 2.6061778498718375 200 200 200
-0.2524053100762826 -0.0034214469035354195 2.610116204406755 200 200 200
-0.25418913417598143 -0.12418294508397013 2.606310410508117 200 200 200
-0.25388161807477266 -0.14571931325654988 2.603475396297842 200 200 200
-0.24832278253912374 -0.015529792841016639 2.5917606200427254 200 200 200
-0.24418463282786265 0.06214527525855589 2.6297713319531146 200 200 200
-0.24220521574150686 0.02907791883844572 2.6332628647830782 200 200 200
-0.23880013968885688 0.03411000172233932 2.634134590924117 200 200 200
-0.23827024385869844 0.0496737187894152 2.6337694227571746 200 200 200
-0.23586650269288956 -0.036510503791617334 2.6328468259451294 200 200 200
-0.2355970831478375 -0.09906743181339218 2.6273272325436126 200 200 200
-0.23551622852311355 -0.08887575535797107 2.628606107725265 200 200 200
-0.2332277822979632 -0.0453291712014019 2.6306303259963055 200 200 200
-0.2323818320994235 -0.11465522439627214 2.6258136897214603 200 200 200
-0.22890418317168196 0.04701182577022581 2.636496329802055 200 200 200
-0.22549409994427397 -0.06646453255855134 2.6282806039662874 200 200 200
-0.22300513185305662 -0.05668536127204584 2.6280102734963444 200 200 200
-0.22090668493028345 0.030628198121122628 2.6337579433206217 200 200 200
-0.21873684857284068 0.024028837939087846 2.6319700499244116 200 200 200
-0.218240367267067 -0.04292932291855787 2.628748149674835 200 200 200
-0.21635306588968356 0.03717205956997048 2.6349967262056193 200 200 200
-0.21603149460757884 0.0010621054326965724 2.6338886141402256 200 200 200
-0.21557383691367943 -0.06855198742926215 2.6272049180922648 200 200 200
-0.21357440417875756 0.04428376726717573 2.6353925679624406 200 200 200
-0.2131987351793332 0.016553798811175514 2.6336757664734454 200 200 200
-0.2132492920208807 -0.09917021281446464 2.623553322106911 200 200 200
-0.20855727013889178 0.10945059999863574 2.6539646826743235 200 200 200
-0.20550094339184682 0.09800772997206181 2.65379938526741 200 200 200
-0.20556757318316923 -0.00301873465621265 2.6544331599563145 200 200 200
-0.20199834950619142 0.04166038367413459 2.6550534038885347 200 200 200
-0.20077837574016927 -0.007365395358120316 2.65415842520987 200 200 200
-0.19696839944757186 0.06500561801152788 2.658374084750697 200 200 200
-0.19503608404377892 0.1147506967567264 2.658770761300461 200 200 200
-0.1969495849567028 -0.002877464001843113 2.6542909642063264 200 200 200
-0.19339205312981222 -0.02921988993194033 2.6516201520433693 200 200 200
-0.19047229406129093 -0.011761262714521551 2.6529766274452005 200 200 200
-0.19039184248373192 -0.05347418847641614 2.651373870342209 200 200 200
-0.18851114143538766 -0.05975374655378273 2.6490061686168156 200 200 200
-0.18661979108985877 0.006771757420508628 2.654744893505068 200 200 200
-0.18366334647372556 0.11442352289864906 2.656240781211922 200 200 200
-0.18197826345347984 -0.05409887433763571 2.6502713862037095 200 200 200
-0.1826793669865727 -0.06869391926541384 2.646986365627231 200 200 200
-0.17244743288936235 0.06838844428578304 2.6724145894360385 200 200 200
-0.17481064024151338 -0.09238019498501988 2.659525783955 200 200 200
-0.17024626821008523 -0.07318220726106944 2.666673276796121 200 200 200
-0.12522953475599946 0.05129552366890939 2.672491782325473 200 200 200
-0.0973944942768479 -0.07945229744685926 2.6532039870004844 200 200 200
-0.08929624046849065 -0.06397505168503341 2.662287821079581 200 200 200
-0.08794735604888752 -0.07728313134992507 2.6554496195239 200 200 200
-0.08771482815555891 -0.07288247727885243 2.6581929426384634 200 200 200
-0.08381506560353147 -0.07012364320148229 2.6605052448031463 200 200 200
-0.08289842134330512 -0.08117038864040226 2.6526989942748935 200 200 200
-0.07952008729835122 -0.07464161446721196 2.656861828358065 200 200 200
-0.05963403743119279 -0.07622136511735518 2.649486929893622 200 200 200
-0.05620505070674323 -0.0624788573752727 2.6610228519747965 200 200 200
-0.02279737051542791 -0.07434703918793674 2.6472951585457687 200 200 200
-0.0035010555638988537 -0.07356043336740714 2.645021031984212 200 200 200
0.009912192206545292 -0.07357626030800242 2.644284465024168 200 200 200
0.019272132747144653 0.07302955921456637 2.6558518082747966 200 200 200
0.019897161379527864 -0.06690009107188384 2.649766130345479 200 200 200
0.020233235158488277 -0.06712100421979476 2.6505134824673164 200 200 200
0.021091570012006164 -0.07588323140713184 2.643615029873078 200 200 200
0.027604015528978655 -0.06564348559396607 2.6506485314407167 200 200 200
0.07654088312519498 -0.081170207099236 2.635844652871785 200 200 200
0.09584602624039183 0.10411541501217822 2.6631474078536925 200 200 200
0.11131358343417691 0.0946838459257884 2.652632879494772 200 200 200
0.1115870568501589 0.07639089417255411 2.640723345447671 200 200 200
0.11388300618381192 0.10934115567729218 2.6665565155914885 200 200 200
0.11735391338369756 0.10040165072146852 2.659313879934325 200 200 200
0.11735391338369756 0.10040165072146852 2.659313879934325 200 200 200
0.11700114029865809 -0.08095754979868568 2.632087936383728 200 200 200
0.11746255771296207 -0.07108475765470938 2.6338877975728368 200 200 200
0.11966717277620385 -0.08508003395207725 2.631294046928733 200 200 200
0.1370100231477652 0.06384012211159941 2.629366747497605 200 200 200
0.1466219103949711 0.09280876744843725 2.627667230930896 200 200 200
0.14613991571961038 0.07151839704931116 2.6250105060260824 200 200 200
0.1466366695238141 0.0602982599597496 2.6251494282064227 200 200 200
0.17769735361537894 0.03456038129591084 2.6301291652371543 200 200 200
0.18361998065609705 0.041711909506016685 2.630762435895103 200 200 200
0.1866475121000029 0.05635622564263351 2.6303333837665233 200 200 200
0.1876548470182404 0.07631747068305762 2.6294267431847067 200 200 200
0.1876548470182404 0.07631747068305762 2.6294267431847067 200 200 200
0.1876548470182404 0.07631747068305762 2.6294267431847067 200 200 200
0.19098592996283903 0.03576374814161776 2.628521813579762 200 200 200
0.19599260886565184 0.1052518209816347 2.635742657915766 200 200 200
0.19273168650543093 -0.044074827349432834 2.6269926767959766 200 200 200
0.2022436856428816 0.06934167946773322 2.629493212628007 200 200 200
0.20327886244106327 0.06438627084191616 2.6287348896508047 200 200 200
0.1997167310844531 -0.08839293430917115 2.618043678764587 200 200 200
0.1997167310844531 -0.08839293430917115 2.618043678764587 200 200 200
0.20494649705466192 0.0507260119044474 2.627709269787607 200 200 200
0.2054401803699196 0.05870075252058535 2.6268923093594228 200 200 200
0.21029735637213098 0.06900467302742219 2.627562259893229 200 200 200
0.2096338655538811 -0.008787852216279837 2.6271219903881304 200 200 200
0.21147234726498626 -0.019148199035886302 2.6232267507987466 200 200 200
0.21096494739372249 -0.08588217359420748 2.6110272040809943 200 200 200
0.21626924920208762 0.06588967626280681 2.6218388457489312 200 200 200
0.21626924920208762 0.06588967626280681 2.6218388457489312 200 200 200
0.21234174432343725 -0.07806115008448224 2.6147487716654854 200 200 200
0.21644506787516762 0.04213489283978876 2.622445999198839 200 200 200
0.21755784359522276 0.084743725913582 2.6249594851306135 200 200 200
0.21671184087112097 0.005282859064225664 2.625440618323346 200 200 200
0.21958893183679398 0.07301504290630634 2.6209210933538056 200 200 200
0.21961760577213277 0.023967309350479974 2.6245192352427087 200 200 200
0.21576475249922794 -0.0930264787798263 2.6095238852632408 200 200 200
0.22110954562885243 0.07890808380368436 2.6232216097401455 200 200 200
0.22305581952786924 0.06278662154061153 2.620904582170506 200 200 200
0.22261026320228233 0.03904115966770273 2.6189528293039355 200 200 200
0.22465988457966019 0.04569640909444217 2.6180430401230876 200 200 200
0.22592995613638192 0.0574364981306242 2.616534744719566 200 200 200
0.22572497139855907 -0.009128682277192393 2.6175582810158935 200 200 200
0.22596402523878625 -0.022515843855135085 2.617802574970116 200 200 200
0.22714171587575907 0.021389429254583873 2.6163945258335075 200 200 200
0.2278666479294715 0.03547868287581932 2.6167320833779737 200 200 200
0.22711444856014826 -0.028734387362563053 2.6139834547172756 200 200 200
0.23058766555115548 0.05154990564550345 2.614769104193764 200 200 200
0.23295173430617355 0.09279766129576944 2.613337028720962 200 200 200
0.2287886179613924 -0.07354444112377022 2.6078365043114657 200 200 200
0.23095708402758822 -0.06161868634198525 2.6062566730983074 200 200 200
0.23058807845524246 -0.06240147437157037 2.609256028241847 200 200 200
0.2344708890888459 0.027951249692079592 2.6135449637843005 200 200 200
0.23575203955491966 0.06696367011285803 2.60931395790684 200 200 200
0.2392887280919177 0.07375890541822443 2.612257588805449 200 200 200
0.23855693799831085 -0.04822275669269241 2.6093951376794027 200 200 200
0.24559908368036176 0.03372751757013895 2.614669030542401 200 200 200
0.2462901449745697 0.005728479854673287 2.6165697695865386 200 200 200
0.2482417782243721 0.08384094841437588 2.6133841806590974 200 200 200
0.2509510679890853 0.07240676858407583 2.611520601180195 200 200 200
0.2543340630454179 0.01802717093194385 2.616837926542784 200 200 200
0.2531020970449989 -0.046605677385942006 2.61719771754147 200 200 200
0.2593093814085779 0.08720911558064624 2.6173083117144817 200 200 200
0.2593093814085779 0.08720911558064624 2.6173083117144817 200 200 200
0.26492955600759616 0.01200035448386637 2.6182372543649763 200 200 200
0.26316400419109715 -0.06858300677040682 2.6136384354247686 200 200 200
0.26988326682635355 -0.04617839616299531 2.6128032816229214 200 200 200
0.2714305311314894 0.006237132755278313 2.615011174158488 200 200 200
0.27894154876368543 0.07329162474151926 2.6113372253777145 200 200 200
0.279933924575912 0.058264332161837164 2.6114814740710424 200 200 200
0.2771685125466912 -0.04866271792658442 2.6160496694701574 200 200 200
0.280431676493946 0.013716779506113958 2.618598001441114 200 200 200
0.2813156378520116 -0.08388458920936753 2.6033381577546435 200 200 200
0.2849814696602753 -0.03620463197966051 2.6135023071187713 200 200 200
0.2880971930525323 0.048084902719206415 2.609997118098825 200 200 200
0.2886998322951227 0.026423727456615 2.610921439747728 200 200 200
0.28518001136349347 -0.07362334813485089 2.60760104348603 200 200 200
0.2868875900970405 -0.09320987035280137 2.6035943303212545 200 200 200
0.286841075471577 -0.09300811181325923 2.6032447502106058 200 200 200
0.28905449654510645 -0.024458910124160318 2.608965864903639 200 200 200
0.28914495664920864 -0.024579506335065372 2.6091214204018955 200 200 200
0.29080775852318114 0.015445041715820283 2.61005286936083 200 200 200
0.2866034463327958 -0.10151772968612739 2.59932255761163 200 200 200
0.2964092627574171 0.0414712926851258 2.606901394729866 200 200 200
0.2968463897022275 0.024253659084963918 2.6101617288833183 200 200 200
0.2970556574347231 0.0086226911099014 2.6059464848249174 200 200 200
0.29747134278948667 -0.03293509784813177 2.606301059443348 200 200 200
0.29628342033877386 -0.0787465246024015 2.5996613966706343 200 200 200
0.3049162453222154 0.04428056432549391 2.600173488549916 200 200 200
0.3052226019724242 -0.007682021918079293 2.5991303042976903 200 200 200
0.30575707239204036 0.0021632799000886847 2.5986269869938385 200 200 200
0.30449476972494743 -0.05157289986155695 2.6048114498626465 200 200 200
0.30349514574833847 -0.07413776219024759 2.5988011324460305 200 200 200
0.30504693923685783 -0.014081927108324505 2.596251046438155 200 200 200
0.3050616785113261 -0.035488916842993386 2.6032903649575845 200 200 200
0.3083223778824704 0.06590625554639629 2.5999383541782617 200 200 200
0.3094026732466914 -0.07853508915985 2.6029225638592464 200 200 200
0.3106618291839849 -0.01758349650648548 2.595385231787094 200 200 200
0.3409029844071553 -0.030630534854604454 2.5954596514524098 200 200 200
0.3394361673601594 -0.0756451318397962 2.5878539960795868 200 200 200
0.34236222363492946 -0.02483381596868684 2.596305799830577 200 200 200
0.3397127597885861 -0.10656513933573415 2.574272219881308 200 200 200
0.3439596109186117 -0.04343550802062549 2.5943222334305145 200 200 200
0.3461361702369453 0.01352269559591397 2.5977641509565856 200 200 200
0.3483468312619955 0.07648209987648542 2.598873801164619 200 200 200
0.3454309003373947 -0.03613192758922449 2.5947001325965373 200 200 200
0.34544507072339237 -0.06417131641710963 2.5921563854682734 200 200 200
0.3507854860469251 0.051939546269836274 2.599209361498612 200 200 200
0.3510247472500718 0.059828047675129725 2.5983096871774602 200 200 200
0.34797859479827464 -0.04670668443420504 2.591836981202584 200 200 200
0.3514062003936955 0.019429805345674837 2.5981216781943535 200 200 200
0.3546665516598244 0.06586775476914122 2.5985249107922384 200 200 200
0.3509936815833431 -0.03948190919406163 2.5933496842596853 200 200 200
0.3550431118620755 0.04760652452434028 2.599082839602764 200 200 200
0.355026834469677 0.047778722781970345 2.598320969952356 200 200 200
0.3566765002902378 0.05717988437285604 2.599776194752171 200 200 200
0.35669854641865834 0.02750727876578741 2.599716394139184 200 200 200
0.35434413585795016 -0.030795404351223233 2.5930104344999103 200 200 200
0.35583191064092307 -0.023858877993389264 2.5966021731457936 200 200 200
0.3592909102528465 0.03591005435139966 2.5979136369328324 200 200 200
0.35930940707097186 0.03589216353722407 2.59808619238816 200 200 200
0.36202256361751944 0.050381585812501774 2.600164209829763 200 200 200
0.35879673821205493 -0.04793563013003279 2.5854749998096263 200 200 200
0.35695128415221644 -0.07112771073402592 2.569156953586671 200 200 200
0.35688081504367153 -0.07154333423232681 2.570713366103465 200 200 200
0.3651301692714853 0.06713744688900468 2.598267780626138 200 200 200
0.36491609800055386 0.04292549764878778 2.599104274749419 200 200 200
0.36491609800055386 0.04292549764878778 2.599104274749419 200 200 200
0.3634739562102754 -0.00995432394946388 2.596050514488903 200 200 200
0.3706109938741149 0.022238620858676738 2.598467682168329 200 200 200
0.37207801048362554 0.04023570691502175 2.5979588117076817 200 200 200
0.3722031303627476 0.009205110024513142 2.5954683383163877 200 200 200
0.3767826440245469 0.03394801052886257 2.598787604995404 200 200 200
0.376947745463892 0.04579427573558973 2.5970835584456786 200 200 200
0.3788827623958907 0.013821598878512024 2.5953538021575597 200 200 200
0.38072848300057305 0.02974810272961887 2.5956329875050232 200 200 200
0.38465612596417387 0.030438060311266384 2.5799312518934108 200 200 200
-0.2731913149797825 -0.10038658366000967 2.588398324972089 200 200 200
-0.23546239078140194 0.03965388835220946 2.63492521461567 200 200 200
-0.19312021359018566 -0.007293214729193323 2.6537066764930355 200 200 200
-0.1730947652981064 0.08414512304847158 2.676392212365609 200 200 200
-0.08798420367821849 -0.07719833721127294 2.6554960389485593 200 200 200
0.18518008706418593 0.009214719992940629 2.6312932051016644 200 200 200
0.20565526952886845 -0.0909243605771921 2.6179450163821443 200 200 200
0.23907162726230435 -0.033345754894632165 2.6129483564635696 200 200 200
0.28644536896094774 0.005498476456749513 2.613942876566252 200 200 200
0.30525022626835924 -0.021852026700210084 2.6052974409340637 200 200 200
0.308738917520937 -0.08614216839432572 2.60047576605904 200 200 200
0.3099446218724687 -0.058672045180873086 2.6002770358882956 200 200 200
0.31811791612049384 -0.05506728205198605 2.6023657851370072 200 200 200
0.3265144652752015 0.0071515897132173704 2.570308264899256 200 200 200
0.32662746174141377 -0.07448640760953266 2.558647302073169 200 200 200
0.34591485117527776 0.02264498800350875 2.599007487334809 200 200 200
0.34594326811646986 0.022984236083693873 2.598454054378531 200 200 200
0.3641127012118503 0.032819098681925264 2.597044201796794 200 200 200
0.38140884005462516 0.035511229516906204 2.591239953687522 200 200 200
-0.2591162081835394 0.11662600279023631 2.6068621166258095 200 200 200
-0.2815834975622843 -0.12123258853560981 2.582271858011423 200 200 200
-0.2907537036740756 -0.20315604850314065 2.5890576058584633 200 200 200
-0.25243591090901607 0.10247380047974389 2.611372243513931 200 200 200
-0.25114005965242914 0.058495037194006665 2.607386756779277 200 200 200
-0.26198678623668015 -0.06693381401088648 2.606015482104021 200 200 200
-0.24944453915931508 0.005407967416523198 2.6097828134012597 200 200 200
-0.25381111126525124 -0.05881212984069593 2.6067623744252697 200 200 200
-0.2315317629712292 0.12361302555842377 2.6383006926394685 200 200 200
-0.22819695634328968 0.12783306276974843 2.6407356456932454 200 200 200
-0.2391902901120328 -0.06993378886745259 2.629987698673176 200 200 200
-0.2163356659799517 0.1271108144818784 2.6390515127219856 200 200 200
-0.2332973070313991 -0.020033388292307403 2.6338695989225 200 200 200
-0.21550792395462387 0.11634926486662628 2.6359695994017254 200 200 200
-0.21350897882613015 0.04429039497029887 2.635389789246926 200 200 200
-0.22823334223525002 -0.14670739417961579 2.6269454648985127 200 200 200
-0.2119198045020841 -0.031101829662215627 2.632877886660995 200 200 200
-0.19749055838477478 0.08051960248468118 2.658595435652168 200 200 200
-0.18867732344551352 0.06829062559267289 2.658151799877071 200 200 200
-0.18301889166671204 0.04823792088804222 2.656422326885521 200 200 200
-0.1806847449746873 0.04235751799323861 2.655447478892031 200 200 200
-0.1725569256848539 0.06822453901046201 2.672937613188619 200 200 200
-0.11203682517976307 -0.05581166312592712 2.6880442297692753 200 200 200
-0.09676332522805954 -0.06210555999158643 2.6693029808567723 200 200 200
-0.09008884695717483 -0.06485943423186272 2.6643695124342903 200 200 200
-0.0695271959448597 -0.06457527206974037 2.66245508730562 200 200 200
-0.06447131686235895 -0.06123833264942235 2.666229854441406 200 200 200
-0.01627438734089312 -0.05601175512881004 2.6727106582685236 200 200 200
0.010941346535006384 0.10297736334197545 2.6815524990357424 200 200 200
0.015382778907385588 0.0647955679390517 2.6560726669002976 200 200 200
0.011476566823179352 -0.06235559427188203 2.6557865163948837 200 200 200
0.014934352539132651 -0.05488545889591688 2.6737583044482442 200 200 200
0.02741917491543603 -0.06620784740412303 2.651991385986326 200 200 200
0.06008124168581361 -0.06058062339946121 2.6530381767593787 200 200 200
0.10524925424179421 0.0883080335870689 2.648878148414857 200 200 200
0.09975232826991685 -0.060859172467563505 2.6460290766468364 200 200 200
0.11213484383283802 0.10436269423385469 2.6621276133750174 200 200 200
0.11909073792803557 0.08868607569834137 2.646910540998282 200 200 200
0.1272894177635233 0.09403814426528637 2.6463376241100134 200 200 200
0.16301242020906434 0.11854339317823437 2.6463479050927834 200 200 200
0.16079989181240859 -0.047535169090006046 2.6179139289803954 200 200 200
0.1762755788536489 0.11097852291509183 2.631803063427472 200 200 200
0.17544229467860142 -0.0350024574613942 2.6289877774288195 200 200 200
0.18667677989122983 0.05645575304834185 2.6300697279020735 200 200 200
0.19675471289351612 -0.10612758832392764 2.6234657491700752 200 200 200
0.21551437264895715 -0.024957658896969957 2.621005263265842 200 200 200
0.224383622214614 0.1118201265201075 2.6245871577636932 200 200 200
0.2163913756367489 -0.05394018759318547 2.6126667256921734 200 200 200
0.22354169243479755 -0.0007883494400193546 2.6212753388236214 200 200 200
0.23094404488757717 0.10689313654212702 2.6180286356266405 200 200 200
0.24848021558220176 0.08257161782313323 2.6150952077922787 200 200 200
0.24714809649369437 0.005370810752294144 2.6173389561689397 200 200 200
0.25222871267147445 0.058195583424449894 2.6114938242901675 200 200 200
0.2584520515488775 0.09389640241718018 2.6209650526874344 200 200 200
0.2681635510790501 0.09157742364584123 2.615606305849356 200 200 200
0.2715234204680961 0.005828555644955712 2.6155367371993257 200 200 200
0.26682362445225766 -0.09692329339362332 2.603854522119604 200 200 200
0.28024042828456247 0.04363383502073944 2.611990098612491 200 200 200
0.28327359662712004 0.09001543491201373 2.6196857374339566 200 200 200
0.2787959998891518 -0.11245838940714296 2.600765572289938 200 200 200
0.2889547236031963 -0.024613029217113804 2.6092416910297938 200 200 200
0.2887716196890692 -0.06688916505458302 2.6111225147861736 200 200 200
0.2966786402398706 0.04158977135208357 2.607354868258179 200 200 200
0.29673763690399935 0.02377858170358972 2.610973079160068 200 200 200
0.2961040678723449 -0.061702912833573306 2.6122971648191227 200 200 200
0.3011255847769622 -0.08497691250076392 2.5986478420072476 200 200 200
0.3013505000565594 -0.11079693277291104 2.592925934176279 200 200 200
0.3148503162549002 0.08967774382688691 2.605691611367621 200 200 200
0.3073156578656109 -0.10986673457360409 2.597454675634723 200 200 200
0.30557347569703286 -0.1255478952453138 2.5837732504941435 200 200 200
0.32036892315840865 0.08840344130985467 2.5986198418491337 200 200 200
0.31719647286214975 0.04029631209517701 2.572846522387612 200 200 200
0.3130068423024745 -0.11211050451897818 2.5834962756016724 200 200 200
0.3130068423024745 -0.11211050451897818 2.5834962756016724 200 200 200
0.3271039942041311 0.05529063179371814 2.567966724319483 200 200 200
0.32813373831643 -0.12763365268251378 2.6065420435405917 200 200 200
0.34064185296192506 0.06931608880673941 2.597037763921759 200 200 200
0.335426498777983 -0.12262843576014444 2.561309244895307 200 200 200
0.34986306998896444 0.08323812902144107 2.599194133833946 200 200 200
0.35352361796724296 0.0761961680531424 2.5980572387909704 200 200 200
0.3481962541623304 -0.09106350052686427 2.578138176826902 200 200 200
0.35543938613312603 0.09071376191302973 2.5968945224467372 200 200 200
0.3593317089276881 0.0012546915547620961 2.596446825499551 200 200 200
0.3619353735450106 0.007906234579080603 2.5973252251065904 200 200 200
0.37576242594010156 0.09208624488372026 2.672359313627768 200 200 200
0.36836972235232085 -0.021608433382619016 2.581786006299584 200 200 200
0.37062164783153106 -0.0660141342423422 2.578823188957267 200 200 200
0.3844648759700554 0.05834404659447429 2.598797159579123 200 200 200
0.3844900946591856 0.044073416031465903 2.5954704801254067 200 200 200
0.3879374577816066 0.021009293032788867 2.5842303865658267 200 200 200
0.3941766865999149 0.049084794828129746 2.5918069812719944 200 200 200
0.3926261427664937 0.03105726484812918 2.5844063766533494 200 200 200
0.39699659296931034 0.04326443764655174 2.5827680797370705 200 200 200
0.39699659296931034 0.04326443764655174 2.5827680797370705 200 200 200
0.3953433764610329 -0.009354935142700326 2.559619305951064 200 200 200
0.3953433764610329 -0.009354935142700326 2.559619305951064 200 200 200
0.4049674588266711 0.04694606578778118 2.5822691360833425 200 200 200
0.4133214514790247 0.038270329922187936 2.560366643595864 200 200 200
0.3616471463862095 -0.03020224368693559 2.593840735660937 200 200 200
0.25548669695854187 -0.021350428462028503 2.583984375 200 200 200
0.3445582871933624 -0.07958186831424398 2.5846959256469932 200 200 200
-0.3734641969203949 -0.2781607508659363 3.034386396408081 200 200 200
-0.36039865016937256 -0.3800428807735443 3.014303684234619 200 200 200
-0.1238279986401353 -0.06361982700551609 2.8181617162752977 200 200 200
-0.1238279986401353 -0.06361982700551609 2.8181617162752977 200 200 200
-0.11250986066633313 -0.06115540855882477 2.8172160741532957 200 200 200
0.02944688138351209 -0.055535345221630936 2.66701933334506 200 200 200
-0.2693409841256179 0.13009289824537065 2.6145953769909065 200 200 200
-0.26905381606579387 0.12016325043367564 2.6093911701937897 200 200 200
-0.27088235736830657 0.12788384370683678 2.7184457299583777 200 200 200
-0.26467800551896364 0.12309017761742891 2.7111228456954426 200 200 200
-0.2522024663404941 0.12770550335504502 2.632343613282177 200 200 200
-0.24865414080018855 0.12731493918093842 2.6450598292391847 200 200 200
-0.23919261650104595 0.12760273797998395 2.721623813850794 200 200 200
-0.23783118464386183 0.127583222201202 2.7144714042966 200 200 200
-0.22787291254770115 0.12487771481735115 2.6858981725596416 200 200 200
-0.2264056031357944 0.12611798715474526 2.697261987087127 200 200 200
-0.25157861294373385 0.06052443148290104 2.9148405808779305 200 200 200
-0.22434476971033962 0.12438679471879828 2.745349063087104 200 200 200
-0.21917890069905158 0.12470583903775687 2.6721690415497674 200 200 200
-0.22643169472499408 0.13086246521480374 2.7795656904146604 200 200 200
-0.2156332019390012 0.12882400339472075 2.7362838225841264 200 200 200
-0.21552201386591563 0.13062447295754712 2.7810830757263236 200 200 200
-0.21017131808542291 0.12854077002273953 2.747845124192633 200 200 200
-0.20712236726496647 0.1280537282552945 2.711235612312526 200 200 200
-0.1812039101806053 0.12603788879300765 2.708012532656579 200 200 200
-0.20477928415692745 0.05730590487690014 2.8833766632414823 200 200 200
-0.17734904250858521 0.12205276162926751 2.6930102964771865 200 200 200
-0.18610279279287173 0.027718227791947096 2.6521474407157744 200 200 200
-0.18307589119925016 0.0480686094559559 2.6565219085469387 200 200 200
-0.17420058335840533 0.12205164460250165 2.7239556136616767 200 200 200
-0.17046088471214643 0.10042049610128156 2.691672223881117 200 200 200
-0.16428964834584853 0.10762553696089934 2.7065818336906773 200 200 200
-0.18550333861635376 -0.03276668914072224 2.6538560316205153 200 200 200
-0.16588646177324878 -0.053050728355219005 2.7011138797709773 200 200 200
-0.14351896154052846 -0.06659772503663564 2.9827496586383675 200 200 200
-0.13667760752793173 -0.07279809101209742 2.978530593418999 200 200 200
-0.13157574557822505 -0.058998623311307584 2.9943492138236656 200 200 200
-0.12988941760625164 -0.06650376518688811 2.982485673341797 200 200 200
-0.082210555259665 0.10364186603686662 2.6937721482557686 200 200 200
-0.11528869836678422 -0.06698292299545958 2.9829355206247725 200 200 200
-0.0774899036034206 0.09181330008594579 2.675883297727086 200 200 200
-0.10180169179929201 -0.0607075939913017 2.6759498703151845 200 200 200
-0.09179476704670023 -0.05507087144964586 2.6875067710348937 200 200 200
-0.1020892135238703 -0.064032471412247 2.977969325646958 200 200 200
-0.07312228159022131 -0.05314785485544619 2.6889370662960235 200 200 200
-0.03965739392617076 -0.06732482676712677 2.9744113170439364 200 200 200
-0.032616428497156645 -0.059974097619892086 2.669693992911778 200 200 200
-0.034246309611971296 -0.06560612491376117 2.9780438601259105 200 200 200
-0.03452744950312347 -0.06968632155946845 2.969621924253368 200 200 200
-0.01650972086802704 -0.05606798303293788 2.6727554390495016 200 200 200
0.007862409384244198 -0.056157096875771584 2.6700580633556785 200 200 200
0.014628082420719366 -0.05894093643021467 2.6644228729523802 200 200 200
0.019200110800336578 -0.069005487244858 2.9675248985225084 200 200 200
0.030267145028868972 -0.05353920107721955 2.6725801114406846 200 200 200
0.0468242035301754 -0.07348105049555548 2.9619886182349173 200 200 200
0.048850938274822696 -0.06087682124850627 2.6558615410859243 200 200 200
0.0570097954422458 -0.07363059064615572 2.963594632291468 200 200 200
0.09651658058384507 0.10415192410991651 2.6634907379143846 200 200 200
0.10022796929683474 -0.05243323095282502 2.662814203238459 200 200 200
0.12213328969883386 0.10610084808743381 2.661652036463795 200 200 200
0.12255563384967828 0.0976233025882369 2.651745603430621 200 200 200
0.11888748040671991 -0.054746914758703344 2.656323339002 200 200 200
0.14544342907428945 -0.0782446397037478 2.9626686960753754 200 200 200
0.1679856622869645 0.12263004532594558 2.659961587507711 200 200 200
0.1728567839300047 0.12533032134459118 2.6636388874230095 200 200 200
0.18217907653576643 0.12721071771884918 2.6470248398948115 200 200 200
0.1999462265733185 -0.07655862976533 2.9898750489034316 200 200 200
0.20772728132858304 0.126016570660191 2.6339541110276223 200 200 200
0.214751068467959 0.12931197299134303 2.650103751462527 200 200 200
0.21916421284560575 0.12549656851478286 2.627876780094398 200 200 200
0.22346740160917264 0.11898017128383408 2.6260671498789985 200 200 200
0.2251329618781752 -0.06875341241052046 2.947376814815035 200 200 200
0.27452999165587283 0.09729348617035836 2.617687064169298 200 200 200
0.30947102673273225 0.08443169944052117 2.6526436000604217 200 200 200
0.3141460979904022 0.08595914267589518 2.6577690468000097 200 200 200
0.3015611841351691 -0.09740642575986565 2.5935883460485845 200 200 200
0.3030999922176548 -0.08506323016044512 2.608583815545492 200 200 200
0.3158624004137545 0.08850480825406237 2.631424723787589 200 200 200
0.32055275379417875 0.08583702936976524 2.6511403350534453 200 200 200
0.3225468576816076 0.07165226704128759 2.5870578139279066 200 200 200
0.32346010371381917 -0.1346817687086366 2.5531519501189397 200 200 200
0.3484952009272342 0.10282201863220224 2.6132733889021207 200 200 200
0.3563421956247789 0.09970320997842246 2.5989235675971707 200 200 200
0.3635958245007643 0.1005839483124876 2.597642869587777 200 200 200
0.3600148653302021 -0.06987194580991464 2.5612071139828805 200 200 200
0.3584309209178418 -0.08791352173559466 2.553536149416902 200 200 200
0.3584309209178418 -0.08791352173559466 2.553536149416902 200 200 200
0.3685737488656846 -0.07726296979822812 2.550013146170263 200 200 200
0.37965513738347256 0.003988778805417735 2.5827971472105298 200 200 200
0.39082717936385386 0.08491831290283441 2.610313782286925 200 200 200
0.4059439042139852 -0.06751722298786521 2.8012356484180736 200 200 200
0.38529289724052884 -0.024726612848643192 2.5536724773567663 200 200 200
0.38529289724052884 -0.024726612848643192 2.5536724773567663 200 200 200
0.4067503728688541 0.06458687391653022 2.5911849338901143 200 200 200
0.40255636365010355 0.0013074157040690326 2.552587413727261 200 200 200
0.4066400362750726 0.058066219492622584 2.5774415458610194 200 200 200
0.4112698830684173 0.07864083181979124 2.5991542132043848 200 200 200
0.4110679565207237 0.021830524888297464 2.5517852916501993 200 200 200
0.45645136918352014 -0.003809214996019642 2.660105835570719 200 200 200
0.061094868928194046 0.051088761538267136 2.692152500152588 200 200 200
0.05883025613260315 -0.0940781431829475 2.67640179894337 200 200 200
0.05875289285889396 -0.09414636800141052 2.6763508126802766 200 200 200
0.045193698352710754 -0.07006902707909343 2.684876454706993 200 200 200
-0.19165265356226865 0.12611714147363065 2.703944239026065 200 200 200
-0.1505092903792052 0.10581204606260244 2.7024267508761053 200 200 200
0.013281716810420839 0.19491698986092917 2.7033562114082077 200 200 200
0.1728298175695753 -0.12833700188817632 2.6591082688799306 200 200 200
-0.2809174017044813 0.12356478798971764 2.676585064493151 200 200 200
-0.27440033282312115 0.12540076743965428 2.6951286559309486 200 200 200
-0.26758827181949235 0.12690507849104127 2.739367320340063 200 200 200
-0.26619754663816736 0.12593425148160212 2.6624908070738997 200 200 200
-0.26619754663816736 0.12593425148160212 2.6624908070738997 200 200 200
-0.26686362382319606 0.11554789311275016 2.8014766889252636 200 200 200
-0.260374712932559 0.12667865785326546 2.734209337944533 200 200 200
-0.2587570088142346 0.1277266945875912 2.758801584230945 200 200 200
-0.2556902283311381 0.12670742595554552 2.7141782730173114 200 200 200
-0.25085234059683353 0.1288008406546118 2.7744884163472556 200 200 200
-0.25174566158023537 0.12557519021298716 2.6619718023543855 200 200 200
-0.2500823659201814 0.130157860556549 2.7628316193142544 200 200 200
-0.24880109389018965 0.12726718434180873 2.7203268037492196 200 200 200
-0.24880109389018965 0.12726718434180873 2.7203268037492196 200 200 200
-0.2663130355520445 0.06427993822533329 2.846595518120663 200 200 200
-0.24770965182638052 0.1287680448170279 2.678105119208302 200 200 200
-0.24374323372095588 0.12710400057886195 2.73138662743291 200 200 200
-0.2607914761796859 0.06309173591201968 2.849270820037654 200 200 200
-0.2607914761796859 0.06309173591201968 2.849270820037654 200 200 200
-0.24218691097897926 0.12675933412565837 2.688959721926 200 200 200
-0.24218691097897926 0.12675933412565837 2.688959721926 200 200 200
-0.2420960446428537 0.12472892065575214 2.6660286501892387 200 200 200
-0.2580442410528614 0.06346241889366298 2.862743145328234 200 200 200
-0.24104253296076744 0.12553460034976086 2.7045158176553157 200 200 200
-0.23827847560635101 0.13118976805321061 2.7888370133941263 200 200 200
-0.2544325842258235 0.061038995893476666 2.9018150118795822 200 200 200
-0.2343196649050759 0.1255058555163802 2.6694846573634665 200 200 200
-0.23290330923474656 0.1303477682614739 2.783121914359334 200 200 200
-0.23375362519709827 0.12500728156278382 2.692257019330417 200 200 200
-0.23274351445651048 0.12686615606806428 2.7053312454658536 200 200 200
-0.225657592924296 0.12709012915076162 2.7183513334853298 200 200 200
-0.22346644342070376 0.1265968065043256 2.711190318314281 200 200 200
-0.22059122005137827 0.12910280365124893 2.725445830873836 200 200 200
-0.21465064930586497 0.12819179974100173 2.7637905819195008 200 200 200
-0.21183999863585842 0.12106675299103264 2.696974262615503 200 200 200
-0.22310444626152093 0.06296510332845967 2.872901664695402 200 200 200
-0.24513948073555322 -0.025800838669914172 3.0439028023218584 200 200 200
-0.20535880314211463 0.13026563186916693 2.775397633336717 200 200 200
-0.19939862609456438 0.12190035605246038 2.663934197922433 200 200 200
-0.2131972024562694 0.06106887179922713 2.898077677248647 200 200 200
-0.23379210263352782 -0.02695439189223711 3.050065514951476 200 200 200
-0.193000917835135 0.12914701230239337 2.736405008086421 200 200 200
-0.2284403286405966 -0.027204747347203205 3.0329489897837982 200 200 200
-0.20664621943563505 0.061860528483652234 2.8488781359859203 200 200 200
-0.20464639131361378 0.055202350410048305 2.951773425674235 200 200 200
-0.1872867798191104 0.12803919660925198 2.731766077869416 200 200 200
-0.1845968082141947 0.12777859370724204 2.7164338844770164 200 200 200
-0.18382617772191748 0.12429028597504144 2.6940103749788475 200 200 200
-0.1837549076069523 0.12287640576800617 2.668466306980688 200 200 200
-0.18683228864594614 0.09790839304748561 2.792068430024171 200 200 200
-0.19477372257867792 0.056927192041034615 2.926537802835992 200 200 200
-0.17758096909903054 0.12261955749200343 2.71533461808984 200 200 200
-0.177493560928036 0.12037238217221026 2.6932426853675056 200 200 200
-0.20314165230171866 0.00587915854735057 2.865266018894355 200 200 200
-0.17016894311166647 0.11699240211476555 2.7449665242122423 200 200 200
-0.19616982502189934 0.002917715555234833 2.8582294840468676 200 200 200
-0.18213500348039421 0.05935292865095437 2.9014259325519793 200 200 200
-0.1673159498032743 0.10414910496872612 2.6989444466574777 200 200 200
-0.1837778032806904 0.023689975241177125 2.8853720146570416 200 200 200
-0.18024442990369233 0.0036918109150316627 2.8458648485493616 200 200 200
-0.1603480271782088 0.06068421251755553 2.9076189985567304 200 200 200
-0.1732724052485561 0.0011789218091792751 2.873784572877934 200 200 200
-0.17200208713267676 0.002797987451461908 2.856554651373651 200 200 200
-0.17235668431808426 -0.029823840584254552 3.015993223480637 200 200 200
-0.16487956117035835 0.004156629719812764 2.8602482422310573 200 200 200
-0.1706731612013074 -0.030333205714739186 3.0337024666931973 200 200 200
-0.1644664365498786 0.0023672779624396424 2.8309999372080106 200 200 200
-0.15026465344897916 0.0023896213009626166 2.8959361572341846 200 200 200
-0.14907066429206428 -0.030193698003011922 3.010495475258403 200 200 200
-0.1569869939272015 -0.07103264881946368 2.817197710524503 200 200 200
-0.1351011645224139 -0.052708408023028404 2.849133048562398 200 200 200
-0.12927901018334775 -0.051971439962938425 2.8362078152385677 200 200 200
-0.12405347836964581 -0.05259024492583203 2.84797912190027 200 200 200
-0.11944659699863397 -0.052955879551194136 2.8380932565320314 200 200 200
-0.11431091771087883 -0.057395853255962144 2.999593657018507 200 200 200
-0.08492579131288977 0.10533921105300066 2.700056314250214 200 200 200
-0.11054315045935847 -0.053047219726654826 2.8451146305550994 200 200 200
-0.10056545912204741 -0.05182496532523853 2.832427707728437 200 200 200
-0.09120853322655297 -0.058498106968325685 2.9977904242365745 200 200 200
-0.09087074683709669 -0.04835181642365272 2.831801459503954 200 200 200
-0.04995583421680637 0.10434953084400558 2.6900651607741066 200 200 200
-0.06896834112329579 -0.05333968336607528 2.8294553681693464 200 200 200
-0.06527548558546913 -0.05456619911733566 2.8357222573883685 200 200 200
-0.038769717535918534 -0.054589017589513136 2.843041463916401 200 200 200
-0.015799288685412475 0.09395556826480657 2.6745890433071366 200 200 200
-0.03245791325937677 -0.06613547837626263 2.9997201654338492 200 200 200
-0.010229265362643694 0.10457872260028409 2.6906539581955875 200 200 200
-0.0292382253574926 -0.06590274712302378 2.9911674095100516 200 200 200
-0.0292382253574926 -0.06590274712302378 2.9911674095100516 200 200 200
-0.028506540015794696 -0.05267616273204289 2.8340177133414497 200 200 200
-0.004466808773542353 -0.07042078002039598 2.970917776511042 200 200 200
0.0069813660654937364 -0.06614205429604714 2.9791401368050643 200 200 200
0.015153390134533783 -0.06969839251491973 2.97468520994065 200 200 200
0.032176567123798516 0.10429527403794565 2.677733008003992 200 200 200
0.03610861113845034 0.10642552694270443 2.6816972132398997 200 200 200
0.026831282686017113 -0.06553254555953472 2.9843630828841303 200 200 200
0.02829937076469505 -0.05544846531919155 2.8213682046457937 200 200 200
0.05740358664123665 -0.05867605999239544 2.825814585119505 200 200 200
0.06331381499345087 -0.07195550839799891 2.9877099658510162 200 200 200
0.07119051509763084 -0.058524968175041964 2.8239567835141344 200 200 200
0.1001518008841885 0.0996683140475561 2.657989137761079 200 200 200
0.09540532991742642 -0.10527673852389849 2.985284707159893 200 200 200
0.09540532991742642 -0.10527673852389849 2.985284707159893 200 200 200
0.1135795452382072 0.10470300359063645 2.6614999297309763 200 200 200
0.1174712733063413 0.10199232818911168 2.6576187557992026 200 200 200
0.12805120749008114 -0.07636677946741277 2.9698772110481895 200 200 200
0.12633797039807682 -0.06062260217238587 2.815122387736714 200 200 200
0.1318487911634853 -0.05998445337879174 2.8218330453960307 200 200 200
0.13169736486919625 -0.06530479872243995 2.798760884136194 200 200 200
0.13794933922522024 -0.061793253088980135 2.8032782259410487 200 200 200
0.13903237006567482 -0.06574746661913425 2.7973806571818525 200 200 200
0.1489294372488893 -0.08000573929093713 2.9563456679604543 200 200 200
0.1489294372488893 -0.08000573929093713 2.9563456679604543 200 200 200
0.15016855151583566 -0.0858118221942768 2.949329627916834 200 200 200
0.1514243220617391 -0.09884338972838695 2.9438227031490145 200 200 200
0.15927679858517058 -0.0753025397571526 2.9654298999229747 200 200 200
0.15339385945996561 -0.05688151568357826 2.805426782953106 200 200 200
0.17324630554367557 0.12456989486397294 2.6638964231203666 200 200 200
0.18395726956741623 -0.06373736435572486 2.956248226665803 200 200 200
0.17874997021292488 -0.04276793513310414 2.8097234596105887 200 200 200
0.19085521819553924 0.12942529807165418 2.678414617345029 200 200 200
0.19303106382803262 -0.047157699200531374 2.8166140119912306 200 200 200
0.1921832087570937 -0.04337368973592564 2.7936200191130247 200 200 200
0.19369903621988785 -0.04533657300004119 2.8078942437411145 200 200 200
0.2018131385537421 -0.04957315525749462 2.804696870735457 200 200 200
0.21153780841603823 -0.0717198211801096 2.946923996667533 200 200 200
0.21648351460601037 -0.06398080081172525 2.912398494192158 200 200 200
0.21312898395811913 -0.049406467685864326 2.7767347258815884 200 200 200
0.218949796533061 -0.04961060315079465 2.784166052993325 200 200 200
0.22711212369201147 -0.056762109196258806 2.854085764536937 200 200 200
0.22638527983399684 -0.04867841921068886 2.787116086700689 200 200 200
0.22638527983399684 -0.04867841921068886 2.787116086700689 200 200 200
0.23620422528739887 -0.06666260732564615 2.9437331604254666 200 200 200
0.23503341793762678 -0.05703286040946729 2.882165738704133 200 200 200
0.23743021486025354 -0.05293307595393182 2.840878982673959 200 200 200
0.23743021486025354 -0.05293307595393182 2.840878982673959 200 200 200
0.24082116984074128 -0.0579386982906654 2.8776241202471455 200 200 200
0.23425280484847738 -0.04977560677508595 2.772453576194512 200 200 200
0.24245861303450258 -0.056528837436922934 2.870063793257819 200 200 200
0.24644378324936075 -0.07226213464103236 2.9325723819850404 200 200 200
0.24855340442399348 -0.06693552006577073 2.9237506479752917 200 200 200
0.24110228015409418 -0.04904475896175938 2.7992050266298003 200 200 200
0.2498175406361696 -0.057233885424644575 2.8754793858975405 200 200 200
0.25871101021140863 -0.06261790145139869 2.9094477151201428 200 200 200
0.26005699874281424 -0.05777466710254018 2.8656750606094405 200 200 200
0.2638308576651639 -0.07820973672331764 2.942909569072895 200 200 200
0.2638308576651639 -0.07820973672331764 2.942909569072895 200 200 200
0.2557595291284286 -0.04858772735574052 2.7784461877045787 200 200 200
0.25630780562770517 -0.047726316148979826 2.7666047447926267 200 200 200
0.2607384336865016 -0.05144096585575808 2.8163090457821904 200 200 200
0.2607384336865016 -0.05144096585575808 2.8163090457821904 200 200 200
0.26580611424026357 -0.05811311840135024 2.8813072477285453 200 200 200
0.27039361278409196 -0.07247741797238377 2.9236790100025 200 200 200
0.2630406499471417 -0.04724649054556944 2.7795828759766277 200 200 200
0.26735016949233553 -0.05145592087844028 2.821604055435228 200 200 200
0.2636250035916488 -0.045196495160913834 2.7642711651993284 200 200 200
0.2704783274753706 -0.06297872763152433 2.8518431081149584 200 200 200
0.2754057548577688 -0.05461348273828712 2.8346674926486157 200 200 200
0.27183214299776853 -0.04581166216206076 2.760089568587992 200 200 200
0.28049733381752384 -0.05099644009726789 2.8219339498766693 200 200 200
0.2804102605929296 0.0996953170205457 2.6683178069510003 200 200 200
0.28321349107135285 -0.05293690522492623 2.8370325236719047 200 200 200
0.28366478336034456 0.10270312458429746 2.6442589636017333 200 200 200
0.28573080229356007 0.10119763577276514 2.65148156847942 200 200 200
0.29510434595801915 -0.055243859565700035 2.8521957933949444 200 200 200
0.29036321020051586 -0.04853475269958473 2.7649086540326198 200 200 200
0.2940176622661803 -0.04871106748827563 2.7586689462594083 200 200 200
0.2940176622661803 -0.04871106748827563 2.7586689462594083 200 200 200
0.29428771855450886 0.0889548947446907 2.629018905426195 200 200 200
0.30020841944776583 -0.04587940609080651 2.7701386389913893 200 200 200
0.3001947439815059 0.08583909067415513 2.6517889340383967 200 200 200
0.2995661307639931 0.0889371527082811 2.6189076791137476 200 200 200
0.30339575512778993 0.08870776395008069 2.6314706851050906 200 200 200
0.31093365234567344 -0.05290813701542056 2.8185895023404326 200 200 200
0.31093365234567344 -0.05290813701542056 2.8185895023404326 200 200 200
0.3160738356506395 -0.07081667351277247 2.8746708202615756 200 200 200
0.3081472008344989 -0.04728696746916103 2.7521461060622716 200 200 200
0.3094038834116416 0.08535437332596615 2.6522799205918415 200 200 200
0.3138353296837929 -0.05127917857907828 2.805164601281655 200 200 200
0.315864636739739 -0.05341851306767424 2.8297612131533225 200 200 200
0.31678077588386844 -0.05280314591484678 2.822983547807562 200 200 200
0.31015390733167236 0.09096744956783437 2.6375328581689987 200 200 200
0.3126222251433334 0.08586982644088417 2.6635311598813707 200 200 200
0.32165793506926477 -0.05135062830470649 2.799720024407508 200 200 200
0.32165793506926477 -0.05135062830470649 2.799720024407508 200 200 200
0.32463965298765374 -0.048831434139521034 2.7887321060082177 200 200 200
0.32532561155814316 -0.04620679826962983 2.774429550320676 200 200 200
0.33129989082052425 -0.05807101892352598 2.848085989694097 200 200 200
0.3218550346377297 0.09087164057495033 2.6262158519404126 200 200 200
0.32746757023404965 -0.044476073460256005 2.7513824771181348 200 200 200
0.33211309309502574 -0.042966422501316645 2.791557398247735 200 200 200
0.34163277085868926 -0.05564440221464597 2.8171476343551816 200 200 200
0.33466251988313034 0.09654246117546719 2.627291299092202 200 200 200
0.3446712423597754 0.10333460718199085 2.6240486094263735 200 200 200
0.35154042358567994 0.10449810582839285 2.63745503710569 200 200 200
0.3562917897012716 -0.047265427726854624 2.768372498947159 200 200 200
0.36089607598747026 -0.04697386312350409 2.7545897966932267 200 200 200
0.3625442229334387 0.10710619561306024 2.634417770192562 200 200 200
0.38575816830789317 -0.0555403775716193 2.7937210999748827 200 200 200
0.385622904795335 -0.05476676325258772 2.7833649365036854 200 200 200
0.39811525396005193 -0.05834034761051754 2.7486286160686046 200 200 200
0.40372225116237703 -0.06433321440555972 2.7613729946960213 200 200 200
0.43307569539220575 -0.07526271472077722 2.7590331664137016 200 200 200
0.4404964177661299 0.01616966532002849 2.6265490089337558 200 200 200
0.45398808595005075 -0.00862339380851693 2.6575498415872927 200 200 200
0.4623421342269262 0.003567881341106515 2.6434044052479493 200 200 200
0.07394717633724213 -0.5179798007011414 3.192504405975342 200 200 200
-0.027554757083410326 -0.4547190033049075 2.882225058605028 200 200 200
0.28666970027171396 -0.04248494217109267 2.8648854094080174 200 200 200
0.3504217559131585 -0.29943451402553267 3.051343535063165 200 200 200
0.24884470958236393 -0.07083396859702443 2.91678910304674 200 200 200
0.24797509909492066 -0.0723812917274137 2.935577980937425 200 200 200
0.25133980268282874 -0.07055394792351276 2.8767835066565817 200 200 200
0.25133980268282874 -0.07055394792351276 2.8767835066565817 200 200 200
0.25826378016589696 -0.06696937264024459 2.8331262342282026 200 200 200
0.25826378016589696 -0.06696937264024459 2.8331262342282026 200 200 200
0.26138304808161295 -0.06608549020644293 2.8672913788188867 200 200 200
0.2647342524071665 -0.062243226636748326 2.8834665174071414 200 200 200
0.2675040778857645 -0.06311082651893946 2.843212014775733 200 200 200
0.2687979078617004 -0.05996851374522038 2.875834847055273 200 200 200
0.27910680222626494 -0.054291049774443996 2.823725926183665 200 200 200
0.2813191622239993 -0.051653919425853505 2.755464461681709 200 200 200
0.2813191622239993 -0.051653919425853505 2.755464461681709 200 200 200
0.2863793121226474 -0.051805248086898785 2.7732384751281876 200 200 200
0.296002922385311 -0.04192800017725703 2.7434772829032923 200 200 200
0.29923821688897295 -0.03684337871259611 2.6940016209438507 200 200 200
0.3026196311009235 -0.03705353472447272 2.7318930172052265 200 200 200
0.30245195583657286 -0.03440236288144607 2.6532522053885716 200 200 200
0.30897496774013256 -0.03111175125826528 2.7024667383619256 200 200 200
